505 504 504 504 509 514 514 514 513 513 513 513 514 514 514 514 514 515 515 515 515 515 515 516 516 523 518 518 524 523 523 523 523 524 525 525 525 525 527 528 528 528 529 528 528 533 533 533 534 534 534 534 534 535 535 534 534 540 539 539 540 541 542 542 542 542 543 543 544 544 545 546 548 549 549 550 551 552 552 552 554 552 552 556 556 558 558 558 559 559 558 558 558 559 561 564 565 565 565 565 565 565 565 565 565 566 567 569 570 570 570 571 573 573 574 575 577 579 580 581 581 582 583 583 584 584 584 584 584 584 584 588 589 589 589 590 590 590 591 591 592 592 593 593 593 593 595 596 596 596 596 597 597 598 598 599 601 603 603 603 604 606 607 607 608 609 610 610 610 610 612 616 616 618 619 619 619 620 620 621 622 622 624 624 625 625 625 625 627 628 628 629 629 629 631 632 634 635 635 636 637 637 637 638 640 640 643 644 644 646 646 643 643 644 646 646 646 647 648 649 649 650 652 653 653 654 655 657 657 658 661 661 661 662 662 663 666 666 670 671 672 672 674 676 676 680 680 682 680 678 678 680 680 682 684 684 684 686 687 688 688 690 691 694 694 697 697 698 698 703 701 701 703 704 706 706 706 707 707 707 707 707 707 706 706 714 716 717 717 717 719 719 719 719 723 723 725 725 725 727 727 727 730 733 733 734 736 736 736 736 739 739 741 741 746 747 747 747 749 750 750 750 754 755 755 757 759 761 761 762 762 764 766 766 766 769 771 773 773 773 773 773 774 778 778 780 781 781 787 787 789 790 790 790 790 792 792 796 798 798 803 803 805 805 805 805 805 805 809 809 809 809 817 819 819 823 827 827 827 827 829 829 829 829 829 833 833 835 835 835 839 839 839 845 847 847 849 849 851 851 851 858 858 858 858 858 862 864 867 867 867 871 871 869 869 869 871 875 880 882 882 885 887 889 889 891 894 896 896 898 898 901 901 901 903 903 906 906 906 920 920 920 920 920 920 923 923 923 923 925 928 930 930 930 933 935 943 940 940 943 946 946 948 948 956 962 962 962 962 962 962 964 964 964 967 967 987 987 987 987 987 987 984 981 978 978 998 998 1001 1001 1004 1007 1010 1010 1010 1013 1013 1016 1016 1019 1019 1022 1025 1031 1031 1041 1041 1044 1047 1047 1047 1047 1047 1050 1050 1060 1063 1067 1067 1070 1067 1067 1073 1073 1073 1077 1080 1080 1080 1084 1087 1090 1090 1094 1094 1108 1112 1112 1112 1115 1115 1115 1119 1119 1123 1130 1130 1138 1141 1145 1149 1149 1149 1149 1157 1157 1157 1161 1161 1169 1173 1173 1173 1181 1181 1177 1177 1181 1185 1189 1193 1193 1206 1210 1214 1214 1219 1219 1219 1219 1223 1223 1223 1223 1227 1232 1232 1236 1236 1232 1232 1227 1227 0 0 1227 3010 3010 3010 3010 3010 2984 2984 2984 2984 2984 2984 2984 2984 2984 2984 2958 2958 2958 2958 0 0 0 0 0 0 0 0 0 0 0 0 0 0 0 0 0 0 0 0 0 0 0 0 0
504 503 503 504 505 505 514 514 513 512 512 513 513 510 510 511 512 514 514 514 514 514 514 515 515 518 517 517 518 520 521 521 523 523 524 525 523 523 527 527 528 528 528 528 527 527 531 531 533 534 534 534 534 534 534 534 534 534 535 537 539 540 541 540 540 541 541 542 543 543 544 544 545 548 549 549 549 549 551 551 552 552 551 551 552 552 552 555 556 557 557 557 557 557 559 560 563 563 563 563 565 564 564 564 565 565 565 567 568 568 569 570 570 570 570 573 574 575 576 580 581 581 581 582 583 583 583 583 583 584 584 585 588 588 588 588 588 589 589 589 590 590 592 593 593 593 594 595 595 596 596 596 597 597 597 598 598 603 602 602 603 604 606 606 606 607 608 608 608 608 610 614 614 616 618 616 616 618 619 619 619 620 622 622 622 624 624 624 625 627 627 627 627 627 628 629 630 631 632 636 636 636 636 635 635 637 637 641 643 644 643 642 642 643 643 644 646 646 647 648 648 649 650 650 652 653 654 655 655 655 657 658 658 659 661 662 662 664 666 667 668 668 668 671 672 672 675 680 678 678 678 680 680 682 683 683 683 684 686 687 687 687 690 690 693 694 694 694 694 694 697 697 698 703 703 704 704 704 706 706 706 707 707 706 706 708 713 714 714 716 717 717 719 719 720 722 722 723 723 723 725 725 730 730 730 733 733 733 734 734 736 736 738 738 744 746 746 747 747 749 749 749 749 752 752 754 754 757 759 762 762 764 764 764 764 764 766 767 769 771 771 771 773 774 776 778 780 780 783 785 787 789 789 789 789 789 789 790 792 792 796 798 802 803 803 803 803 803 805 807 807 809 811 813 813 819 823 825 825 827 827 827 827 827 827 827 827 833 833 835 835 835 835 841 843 843 845 847 847 849 849 856 856 856 856 856 860 862 864 867 867 867 869 864 864 864 867 869 871 871 875 878 878 880 880 880 880 891 894 894 896 896 896 896 898 901 901 901 903 906 908 915 918 918 918 923 923 923 923 923 923 925 918 918 930 933 935 935 935 935 935 935 943 938 938 962 959 959 962 959 959 956 956 962 962 962 964 964 981 981 978 978 978 978 978 978 978 978 995 995 998 1001 1004 1004 1007 1007 1010 1010 1010 1013 1013 1019 1019 1022 1025 1031 1031 1034 1044 1047 1044 1044 1044 1047 1047 1054 1060 1063 1063 1067 1067 1067 1067 1063 1063 1070 1070 1073 1077 1084 1084 1087 1087 1087 1087 1090 1094 1108 1112 1112 1112 1112 1112 1112 1112 1115 1123 1134 1138 1141 1145 1145 1145 1145 1157 1157 1157 1157 1157 1165 1169 1169 1169 1177 1177 1177 1177 1177 1181 1185 1185 1185 1189 1197 1206 1206 1214 1214 1214 1214 1214 1214 1219 1219 1219 1227 1227 1232 1232 1227 1227 1227 1227 1227 1227 1227 1223 1223 3010 3010 3010 3010 3010 2984 2984 2984 2984 2984 2984 2984 2984 2958 2958 2958 2958 0 0 0 0 0 0 0 0 0 0 0 0 0 0 0 0 0 0 0 0 0 0 0 0 0
503 503 503 503 504 503 503 514 513 512 511 511 510 509 509 510 511 511 514 514 514 514 514 514 515 517 516 515 515 516 517 520 521 523 524 524 521 520 520 527 528 527 527 525 525 526 528 527 527 531 533 533 534 534 534 534 534 534 534 534 534 536 538 540 540 540 540 540 541 541 542 542 542 546 547 548 548 549 549 551 552 551 551 551 552 552 552 553 553 554 555 555 555 555 555 555 558 559 562 562 564 563 563 563 564 565 565 565 567 567 568 569 569 569 570 571 572 572 573 576 576 577 577 577 579 579 580 582 582 583 583 584 585 585 585 586 587 588 587 587 588 589 590 592 592 592 593 594 594 594 594 595 596 596 596 596 596 598 601 601 602 604 604 603 603 603 606 606 606 607 608 608 610 612 612 614 616 616 616 618 618 618 621 620 620 621 623 623 623 624 624 625 625 625 627 628 629 629 631 632 634 634 634 634 634 632 632 634 635 637 643 642 642 642 642 643 644 644 646 647 647 647 649 650 652 652 653 654 654 654 655 655 657 658 658 659 659 661 662 663 666 666 667 668 671 671 672 675 676 676 676 679 680 682 683 683 683 684 684 686 686 686 687 688 688 690 690 691 691 694 694 694 696 696 700 701 701 703 704 704 704 706 706 706 707 707 708 711 711 714 714 717 717 717 720 722 722 722 722 722 723 723 725 727 730 730 731 731 731 731 731 731 733 733 738 738 739 741 741 747 747 747 747 750 749 749 749 750 752 754 759 761 761 761 761 762 762 762 764 766 766 766 767 769 769 773 776 776 781 783 785 787 787 787 787 789 789 789 790 790 790 794 796 798 800 800 802 803 803 805 805 807 809 809 809 811 819 821 823 823 825 825 825 823 823 825 825 825 833 833 833 833 833 835 839 841 841 843 843 847 847 854 854 854 854 854 856 858 860 862 862 864 864 862 862 862 864 864 867 867 869 873 873 875 878 878 880 880 880 882 889 891 894 896 896 896 896 898 898 901 906 908 910 913 913 915 915 918 918 915 915 918 915 915 923 923 923 925 928 928 928 933 935 935 935 938 943 943 954 956 956 951 951 954 956 956 956 956 962 973 973 973 975 975 975 975 978 978 978 989 992 995 998 998 1001 1001 1004 1004 1004 1004 1007 1010 1013 1013 1016 1019 1025 1025 1034 1038 1038 1038 1038 1044 1044 1044 1044 1054 1057 1060 1063 1063 1063 1060 1060 1063 1063 1067 1073 1080 1080 1084 1084 1087 1087 1087 1094 1105 1108 1108 1108 1112 1112 1112 1112 1112 1115 1123 1126 1130 1138 1141 1141 1141 1149 1153 1149 1149 1149 1153 1157 1161 1161 1169 1173 1169 1169 1173 1173 1173 1173 1173 1177 1177 1177 1202 1202 1206 1210 1210 1214 1214 1219 1219 1219 1219 1219 1223 1227 1227 1227 1227 1227 1227 1223 1223 1223 1223 1219 1219 3010 3010 3010 2984 2984 2984 2984 2984 2984 2984 2984 2958 2958 2958 2958 0 0 0 0 0 0 0 0 0 0 0 0 0 0 0 0 0 0 0 0 0 0 0 0 0
502 503 503 503 504 503 503 504 506 506 507 507 507 508 508 509 509 511 512 512 512 514 514 514 514 516 515 515 515 515 515 515 515 515 515 517 517 518 518 519 519 526 525 525 525 525 525 525 525 525 527 528 528 533 533 532 532 533 533 533 534 534 536 538 539 539 540 540 540 541 541 542 542 543 545 546 546 548 548 549 551 551 551 551 551 551 552 552 552 553 553 554 554 554 554 554 555 555 560 560 562 562 562 562 563 564 565 565 565 566 567 568 568 568 569 569 570 570 570 570 573 574 574 576 577 577 578 578 579 580 580 580 580 583 584 585 586 586 586 587 587 588 588 589 589 591 592 592 593 593 593 593 594 595 595 595 595 595 598 600 601 603 603 602 602 602 603 604 604 604 606 606 606 608 610 611 612 614 614 614 614 615 618 618 618 619 621 621 622 623 624 624 624 624 624 627 628 628 629 630 632 632 632 632 632 631 631 632 632 634 637 640 641 641 641 642 642 643 643 644 644 646 647 648 650 650 652 652 653 653 653 654 655 655 657 658 658 658 661 661 664 664 664 664 666 666 666 667 668 675 675 676 678 680 682 682 682 682 682 683 682 682 684 684 686 688 688 688 690 690 691 691 691 694 697 698 700 701 703 703 703 704 704 706 706 707 707 708 708 710 711 714 714 714 714 717 719 719 719 720 720 722 722 723 725 728 730 730 730 730 730 730 730 728 728 730 730 736 738 744 744 744 744 746 747 747 747 747 749 749 757 757 757 759 759 761 761 761 761 762 764 766 766 766 767 767 769 769 776 778 780 783 785 785 787 787 787 787 789 789 789 792 792 796 798 798 798 802 803 803 803 805 805 807 805 803 803 803 821 821 823 823 821 821 821 823 823 823 825 831 833 829 829 833 833 835 835 837 841 843 845 847 851 851 851 851 851 854 856 858 858 860 862 862 862 862 862 862 862 864 864 869 869 873 873 875 875 878 878 880 880 882 887 889 891 891 894 896 896 896 898 898 901 903 903 906 906 913 915 913 913 915 913 913 915 920 920 920 923 928 928 928 933 933 933 935 938 938 938 940 951 948 948 948 954 954 956 956 959 962 967 970 973 973 975 975 975 975 978 987 989 992 992 992 995 995 998 1001 1001 1001 1004 1004 1007 1007 1010 1013 1016 1016 1022 1031 1034 1034 1034 1038 1038 1038 1038 1041 1050 1057 1060 1060 1060 1060 1060 1060 1063 1063 1067 1073 1077 1077 1080 1080 1080 1080 1080 1101 1105 1105 1108 1108 1108 1108 1108 1108 1112 1115 1115 1115 1115 1130 1130 1130 1134 1141 1145 1145 1145 1145 1145 1153 1153 1157 1161 1165 1165 1165 1165 1165 1165 1169 1173 1173 1173 1177 1177 1177 1197 1197 1206 1210 1214 1214 1219 1219 1219 1219 1219 1223 1223 1223 1223 1227 1223 1223 1223 1219 1219 1219 1219 0 2984 2984 2984 2984 2984 2984 2984 2984 2958 2958 2958 2933 2933 0 0 0 0 0 0 0 0 0 0 0 0 0 0 0 0 0 0 0 0 0 0 0 0 0
502 502 502 502 504 503 503 504 505 506 507 507 507 507 507 507 507 507 511 511 511 512 513 514 514 515 515 514 514 514 514 514 514 514 515 516 517 517 517 518 518 522 522 523 525 525 525 525 525 525 525 526 527 528 531 531 531 531 531 532 532 534 534 538 538 538 539 539 540 540 540 540 540 541 540 540 540 547 547 547 549 550 550 550 550 551 551 551 551 552 552 552 553 553 554 554 554 554 555 555 558 560 560 561 561 562 564 564 565 565 566 567 567 567 568 568 569 569 569 569 570 572 572 573 573 574 576 577 577 578 578 578 579 579 580 581 581 583 583 584 584 587 587 588 589 589 589 590 592 592 592 592 593 594 595 594 594 594 596 598 598 599 601 601 601 601 602 602 603 604 604 604 606 607 608 609 610 610 611 612 612 614 616 616 616 618 618 619 620 622 622 623 624 624 624 624 625 625 627 630 630 631 631 631 631 631 631 631 631 632 634 636 640 640 640 640 641 641 642 642 642 643 643 644 647 648 649 649 649 650 650 652 653 654 655 655 657 657 657 657 657 661 662 663 663 664 664 664 666 667 667 667 667 667 667 682 682 680 680 679 679 679 680 680 683 687 687 687 688 690 691 690 690 690 693 697 697 698 700 700 700 701 703 704 704 704 706 706 706 698 698 711 710 710 714 714 714 717 717 719 719 719 719 720 722 727 727 727 728 728 728 728 730 728 728 728 728 730 730 731 742 742 742 742 744 744 744 746 747 747 749 754 757 757 757 757 759 759 759 761 762 764 764 764 766 767 767 767 769 771 771 773 774 776 783 785 785 785 787 787 787 789 790 794 796 796 798 798 800 802 802 803 803 803 803 803 803 803 803 815 819 819 819 819 819 821 821 821 821 825 825 827 827 829 829 829 833 833 837 839 841 843 845 847 849 849 849 849 854 854 856 858 860 860 860 860 860 862 862 862 864 867 867 869 871 873 875 875 875 875 875 878 880 882 887 887 889 889 889 889 889 891 896 896 898 898 901 901 908 910 910 913 913 913 913 918 920 920 923 925 925 925 928 933 933 933 935 935 935 938 940 943 946 946 948 948 954 954 956 959 964 967 970 973 973 975 975 975 978 981 987 987 989 992 992 992 998 998 998 998 1001 1001 1001 1004 1007 1007 1013 1013 1016 1016 1025 1028 1031 1031 1031 1031 1034 1038 1041 1044 1044 1047 1054 1057 1057 1060 1060 1060 1063 1067 1070 1070 1073 1073 1077 1073 1073 1073 1080 1101 1105 1105 1108 1105 1105 1105 1108 1112 1101 1101 1101 1105 1123 1123 1123 1126 1134 1134 1134 1130 1130 1145 1145 1149 1153 1161 1161 1161 1161 1161 1161 1165 1165 1169 1169 1173 1173 1177 1181 1181 1197 1202 1206 1206 1206 1210 1210 1214 1214 1219 1219 1223 1223 1223 1223 1223 1223 1219 1219 1219 0 1219 1219 2984 0 2984 2984 2908 2908 2908 2958 2933 2933 2933 2933 0 0 0 0 0 0 0 0 0 0 0 0 0 0 0 0 0 0 0 0 0 0 0 0 0
500 501 502 502 502 502 502 502 503 503 506 507 507 507 507 507 506 506 507 511 511 512 513 514 514 514 514 514 514 514 513 513 514 514 514 515 516 516 517 517 517 517 521 523 524 524 525 525 525 525 525 525 527 528 529 529 529 530 531 531 532 532 534 536 537 537 537 537 539 540 539 539 539 539 539 539 540 541 545 545 545 545 548 548 550 550 551 551 551 551 551 551 551 553 554 554 554 554 554 554 555 557 559 559 559 560 562 562 564 565 565 565 565 565 566 566 567 568 568 568 569 570 570 571 571 572 573 575 576 576 577 577 578 578 578 579 581 581 581 582 583 583 583 584 584 585 587 588 589 590 590 590 590 592 593 593 593 593 594 594 595 596 598 600 600 600 600 601 602 603 603 603 604 606 606 608 608 608 609 610 610 611 612 614 614 615 615 615 618 620 621 623 623 623 623 623 623 623 623 623 624 628 628 629 630 629 629 629 629 629 631 631 640 638 638 640 640 641 641 641 641 641 642 642 644 644 646 647 648 648 649 649 652 652 652 653 653 655 657 657 657 657 659 661 661 661 661 662 662 662 667 667 666 666 666 666 678 678 678 678 678 678 678 678 682 684 684 687 687 687 688 688 688 688 690 690 693 696 698 698 698 700 700 703 703 703 703 703 703 698 698 706 706 707 708 710 711 713 713 714 714 716 716 717 717 719 727 727 727 727 728 728 728 728 728 728 728 730 730 730 730 739 739 739 741 742 742 742 746 746 747 747 747 752 755 755 757 757 757 759 759 761 762 762 764 766 766 766 767 767 769 769 771 773 776 780 780 780 781 785 787 787 787 790 792 792 794 796 796 798 800 802 800 800 802 802 802 802 802 802 803 805 809 815 817 819 819 819 819 821 823 825 825 827 827 829 829 829 833 835 835 839 841 843 845 843 843 845 847 849 851 856 856 858 858 860 860 860 860 862 862 864 867 867 869 873 873 873 873 875 875 875 878 880 885 887 887 887 887 887 887 889 889 891 891 894 896 898 903 906 908 908 910 910 910 913 915 920 920 923 923 925 925 928 930 930 933 933 935 935 938 940 943 946 946 948 951 951 954 954 959 962 964 967 967 973 973 975 975 981 981 981 984 989 989 989 995 995 995 998 998 1001 1001 1001 1004 1004 1007 1010 1010 1013 1016 1022 1025 1025 1025 1028 1028 1031 1034 1038 1041 1041 1044 1047 1050 1054 1057 1060 1060 1067 1067 1067 1067 1070 1073 1073 1073 1073 1073 1080 1101 1101 1105 1101 1101 1101 1097 1097 1101 1101 1101 1101 1105 1112 1112 1112 1112 1126 1126 1123 1123 1134 1134 1130 1130 1153 1157 1157 1157 1157 1161 1161 1161 1165 1169 1169 1169 1173 1173 1173 1177 1181 1189 1202 1202 1202 1206 1210 1210 1214 1214 1219 1223 1223 1223 1223 1223 1223 1219 1219 1219 0 0 0 0 0 2933 2883 2883 2883 2933 2933 2933 2908 2908 0 0 0 0 0 0 0 0 0 0 0 0 0 0 0 0 0 0 0 0 0 0 0 0 0
499 499 500 501 501 501 501 502 502 503 505 506 506 506 506 506 506 506 505 504 504 512 514 514 514 514 514 514 514 514 513 513 514 514 514 514 515 516 516 516 516 517 519 521 522 524 524 524 524 525 525 525 526 527 528 529 529 529 530 530 531 531 532 533 535 536 536 536 537 538 537 537 538 538 539 539 539 539 540 542 542 542 544 546 547 549 550 550 550 550 549 549 549 551 553 553 554 554 554 554 555 557 558 558 558 559 560 561 562 563 563 563 563 563 564 564 564 565 565 566 566 567 568 569 570 570 570 572 575 576 576 577 578 578 578 579 579 579 579 580 580 580 580 579 579 580 583 587 588 588 588 588 588 588 590 590 592 593 593 593 593 595 598 598 598 598 599 600 601 602 602 602 603 604 606 607 607 607 609 609 609 609 610 611 611 613 613 613 614 615 621 621 623 622 622 622 623 623 623 623 624 627 627 627 628 628 629 628 628 628 629 629 629 637 637 638 638 640 640 640 640 638 638 640 642 643 643 646 647 647 648 648 650 650 650 652 652 652 653 654 655 655 657 658 658 658 658 658 659 658 658 663 664 664 666 666 666 676 676 676 676 676 676 676 676 678 678 683 684 686 687 687 687 687 687 688 690 690 690 696 697 697 698 700 700 701 701 701 701 700 700 700 700 704 704 707 707 710 711 711 711 713 713 714 714 714 716 716 725 725 727 727 727 727 727 727 727 728 728 728 730 738 738 738 739 739 741 741 741 744 746 747 747 749 752 752 754 754 754 755 755 757 757 759 761 764 764 766 766 767 767 767 769 771 773 774 774 776 780 781 781 783 783 785 787 789 790 790 790 792 794 798 798 798 798 800 800 800 802 802 802 803 805 809 813 813 817 817 819 819 819 823 823 825 825 827 827 829 829 831 833 835 839 839 841 841 841 841 843 843 845 849 851 856 856 858 858 858 858 860 860 862 862 864 867 871 873 873 873 873 873 875 875 875 880 882 885 887 885 885 885 887 887 889 889 894 894 894 898 901 906 906 908 908 908 910 913 915 920 920 923 923 923 925 928 928 933 933 933 933 935 938 940 943 943 946 946 948 948 948 954 956 964 964 964 964 970 973 975 975 975 975 981 984 987 987 989 992 995 995 998 998 1001 1001 1001 1001 1004 1007 1007 1013 1016 1019 1022 1019 1019 1022 1025 1025 1028 1031 1034 1038 1038 1044 1047 1054 1054 1054 1057 1057 1057 1063 1063 1067 1070 1070 1070 1073 1073 1077 1077 1094 1097 1094 1094 1097 1094 1094 1097 1097 1097 1097 1101 1105 1105 1112 1112 1112 1115 1119 1119 1130 1130 1130 1130 1153 1153 1153 1153 1153 1153 1157 1157 1161 1165 1165 1165 1165 1165 1165 1169 1165 1165 1177 1185 1193 1202 1206 1206 1210 1210 1214 1219 1219 1219 1219 1219 1214 1210 1206 1206 1206 0 0 0 0 2933 2859 2859 2883 2933 2908 2908 2908 2908 0 0 0 0 0 0 0 0 0 0 0 0 0 0 0 0 0 0 0 0 0 0 0 0 0
496 499 499 499 499 499 500 500 501 505 505 506 505 505 505 504 502 502 503 502 502 511 511 514 514 511 511 511 511 512 512 512 512 514 514 514 515 515 516 515 515 516 516 517 521 522 523 524 524 524 525 525 525 527 527 528 529 529 529 530 530 530 531 532 532 535 535 535 536 536 537 537 537 538 538 538 539 539 540 541 541 541 541 543 544 546 548 548 548 548 548 548 548 549 551 552 553 554 554 554 554 555 556 556 556 557 558 558 559 561 561 561 561 561 561 562 562 562 564 565 565 566 566 568 569 569 570 570 573 573 574 576 576 577 578 578 578 578 578 579 578 578 578 578 578 577 577 578 581 585 586 586 587 587 588 588 588 589 589 589 589 589 595 596 597 598 598 598 599 600 602 602 603 604 604 606 606 606 607 607 607 608 608 609 609 611 611 611 611 612 614 621 622 621 620 620 620 623 622 622 622 624 625 625 625 625 628 628 627 627 627 628 628 636 636 637 637 638 637 637 637 637 637 637 638 640 643 646 646 646 647 647 647 647 647 647 649 649 650 650 654 654 655 657 657 657 657 657 657 657 658 662 663 663 663 662 662 663 663 676 676 676 676 675 675 676 678 678 678 678 679 679 679 679 686 687 688 688 688 690 693 694 696 697 697 698 698 700 700 700 700 700 700 701 703 704 706 708 708 708 710 710 710 711 711 711 713 713 716 716 717 725 723 723 725 725 725 727 727 727 728 730 733 733 734 734 734 734 738 738 746 746 747 747 750 750 750 752 752 752 752 754 754 755 755 759 762 762 764 766 766 766 767 767 769 769 773 774 776 776 780 781 781 781 783 785 785 787 787 787 790 790 794 794 796 796 798 798 800 800 800 802 803 809 809 809 815 815 815 817 819 819 821 821 823 825 825 827 827 829 829 833 835 837 837 837 837 837 839 839 839 843 843 847 851 856 856 856 858 858 858 860 860 862 862 862 867 871 871 871 871 873 873 873 875 875 878 882 882 885 885 887 887 887 887 889 889 894 894 894 903 903 906 906 906 906 908 908 915 920 920 923 923 925 925 925 928 930 930 930 935 935 938 940 943 943 946 948 948 948 948 948 948 948 948 964 967 970 970 970 970 970 973 981 984 984 987 989 989 992 995 995 998 998 1001 1001 1001 1004 1004 1007 1010 1016 1019 1016 1016 1019 1022 1022 1022 1031 1031 1031 1034 1034 1038 1038 1044 1044 1054 1054 1050 1050 1050 1050 1050 1067 1067 1067 1070 1073 1073 1073 1073 1077 1080 1084 1084 1087 1090 1090 1094 1094 1097 1101 1101 1108 1108 1112 1115 1115 1115 1123 1123 1126 1126 1134 1145 1149 1149 1153 1153 1157 1157 1161 1165 1165 1165 1165 1161 1161 1165 1165 1165 1169 1177 1185 1189 1193 1202 1206 1206 1206 1214 1214 1219 1219 1214 1210 1210 1206 1202 1197 1197 0 0 0 0 2859 2859 2958 2908 2908 2908 2908 2908 0 0 0 0 0 0 0 0 0 0 0 0 0 0 0 0 0 0 0 0 0 0 0 0 0
494 494 495 498 495 495 499 500 500 500 506 505 504 504 504 504 502 500 500 501 501 501 501 503 503 503 509 509 509 510 511 511 511 511 511 512 514 514 515 515 515 515 515 516 517 522 522 522 522 522 525 525 525 526 526 527 528 529 529 529 530 530 531 531 531 534 534 534 534 535 536 536 536 537 537 538 538 538 539 540 540 540 540 540 542 545 545 547 547 547 547 547 547 548 550 551 552 553 554 554 554 554 554 554 554 555 556 557 557 560 560 560 560 560 561 561 561 561 563 564 565 565 565 568 568 568 568 568 568 568 569 575 576 576 576 577 577 577 577 577 577 577 577 577 577 577 577 577 578 581 581 582 584 587 586 586 587 588 588 588 588 588 589 592 593 594 593 593 595 596 600 601 602 603 603 603 603 604 606 606 606 607 607 607 608 609 609 610 610 610 610 610 610 610 615 616 618 621 620 620 620 620 622 623 623 623 627 627 627 627 627 627 627 627 635 636 636 636 636 636 636 636 636 636 637 637 637 637 643 644 646 646 646 644 644 644 647 647 647 648 653 653 655 657 657 655 655 655 655 655 659 659 662 662 662 662 662 662 662 676 675 675 675 672 672 672 675 676 676 676 676 676 676 676 678 680 682 683 683 683 690 691 693 694 697 697 697 698 698 698 700 700 700 700 701 703 703 706 706 706 707 708 708 710 710 710 711 711 713 714 714 716 717 720 720 722 723 725 725 725 727 727 730 730 731 733 731 731 733 733 736 746 746 746 747 747 747 749 749 749 750 750 750 750 752 757 757 757 761 764 764 764 766 766 766 767 769 771 771 773 778 778 778 780 781 783 783 785 785 785 787 787 789 790 792 794 796 796 798 798 798 802 802 805 807 809 809 811 811 813 815 817 819 819 821 821 823 823 825 825 825 827 827 833 835 835 835 835 837 837 837 837 837 837 849 849 851 856 856 856 858 858 858 860 860 860 860 862 867 867 869 869 869 871 873 873 873 878 878 880 880 882 885 885 887 889 889 889 889 894 901 903 903 903 903 903 903 903 903 910 913 920 920 923 923 923 925 928 928 930 930 933 935 938 938 940 943 946 946 946 946 946 946 946 946 948 964 964 967 967 967 967 970 970 978 978 984 984 984 987 989 989 995 995 998 998 998 998 1001 1004 1007 1010 1013 1013 1013 1016 1019 1019 1019 1022 1028 1031 1031 1031 1034 1034 1034 1041 1047 1047 1044 1044 1047 1047 1047 1047 1047 1050 1050 1063 1070 1067 1067 1070 1073 1077 1077 1077 1084 1084 1090 1090 1094 1094 1094 1101 1101 1108 1108 1108 1112 1112 1112 1115 1115 1123 1126 1130 1138 1145 1149 1149 1153 1157 1161 1161 1161 1161 1161 1161 1165 1165 1165 1165 1173 1173 1173 1185 1185 1193 1193 1193 1193 1202 1202 1206 1210 1210 1206 1197 1197 1197 1193 1193 0 0 0 0 0 0 2908 2908 2908 2908 2908 0 0 0 0 0 0 0 0 0 0 0 0 0 0 0 0 0 0 0 0 0 0 0 0 0
494 494 495 494 494 494 499 497 497 497 497 505 502 502 504 502 502 500 500 501 501 501 501 502 503 503 504 506 506 506 509 508 507 507 509 509 509 511 514 514 514 514 514 514 514 514 514 518 519 520 525 525 525 525 525 526 527 527 528 528 529 529 530 530 530 532 532 533 533 534 534 534 535 536 536 537 537 538 538 539 540 540 540 540 541 541 545 545 546 546 546 547 547 548 548 549 551 552 553 553 553 554 554 554 554 554 555 556 557 558 559 560 559 559 559 559 560 560 561 562 563 564 565 566 567 567 567 567 568 568 568 568 573 574 575 575 576 576 577 577 576 576 576 576 576 575 575 575 576 577 579 581 581 583 585 585 586 587 587 587 587 587 588 589 590 591 591 592 592 594 595 596 600 600 600 600 600 603 603 604 604 604 606 606 606 607 607 608 609 609 609 609 609 610 611 611 611 611 618 618 618 618 619 620 619 619 620 625 625 625 625 624 624 624 624 635 635 635 635 635 635 635 635 635 636 636 637 637 642 644 644 644 644 644 644 643 643 644 644 646 646 647 655 655 655 654 654 654 654 654 655 655 661 662 662 662 662 662 662 662 662 663 664 667 667 670 671 674 675 674 674 674 675 674 674 674 682 682 682 682 682 683 684 684 687 691 696 696 698 698 698 700 700 700 700 701 701 703 703 704 706 707 707 708 708 708 710 710 713 713 713 713 714 716 716 719 720 722 723 723 723 723 727 728 730 731 731 731 731 733 733 734 734 734 734 744 744 746 746 746 747 747 747 747 749 749 752 755 757 759 761 762 762 764 764 766 766 767 769 767 767 773 774 776 778 780 781 781 781 785 785 787 787 787 789 790 792 794 796 796 798 798 798 802 803 803 805 807 809 809 811 815 817 817 819 819 821 823 823 823 823 825 825 827 829 831 831 833 833 835 835 837 837 837 841 841 845 849 849 856 856 856 858 858 858 858 858 860 864 864 864 867 869 869 869 871 871 873 875 878 878 880 880 882 885 887 887 887 887 887 901 901 903 903 903 901 898 898 898 898 906 910 910 918 918 918 923 923 925 925 928 928 933 935 935 938 940 943 943 943 943 943 943 943 943 946 946 951 962 964 964 964 967 967 970 973 975 978 978 981 984 984 989 995 995 995 995 998 998 1001 1001 1004 1007 1010 1010 1013 1013 1013 1013 1013 1016 1022 1019 1019 1022 1025 1025 1025 1034 1038 1041 1041 1041 1044 1044 1044 1044 1047 1047 1050 1050 1054 1057 1060 1067 1070 1070 1070 1080 1080 1087 1087 1094 1094 1094 1101 1101 1105 1105 1108 1108 1108 1108 1112 1115 1115 1115 1126 1130 1134 1138 1134 1134 1134 1149 1157 1157 1157 1157 1157 1161 1161 1161 1161 1165 1165 1165 1169 1185 1185 1185 1185 1185 1189 1193 1193 1197 1197 1202 1197 1197 1193 1193 1193 0 0 0 0 0 0 2908 2908 2908 2908 2908 0 0 0 0 0 0 0 0 0 0 0 0 0 0 0 0 0 0 0 0 0 0 0 0 0
494 494 496 494 494 494 497 497 497 497 497 502 502 502 504 502 502 500 500 500 500 501 501 501 502 503 503 503 503 503 507 506 506 506 506 507 507 507 512 513 512 512 512 513 514 513 513 514 515 515 515 515 516 525 525 525 527 526 526 527 528 529 529 528 528 530 530 531 531 533 534 534 534 534 535 536 536 537 538 539 539 540 540 540 540 540 541 543 544 546 546 546 546 546 547 547 549 550 551 552 551 551 551 552 552 552 553 555 555 555 557 557 558 558 558 558 558 559 559 560 562 563 563 565 565 566 566 566 567 567 566 566 566 567 570 571 575 575 576 576 576 575 575 575 575 574 574 574 575 576 577 579 579 580 581 583 584 585 586 586 586 586 587 589 589 589 590 590 590 590 593 593 593 600 600 599 599 599 601 603 603 603 603 604 604 604 604 606 607 608 608 608 609 609 610 610 610 610 616 616 616 615 615 616 618 618 618 620 622 623 624 624 624 623 623 628 628 629 634 632 632 635 635 635 635 635 635 635 636 637 644 644 644 644 643 642 642 643 643 643 643 643 643 644 654 653 653 653 653 653 655 655 658 659 661 661 661 661 661 662 662 662 663 663 664 666 666 668 672 672 672 672 672 672 672 674 675 679 680 680 680 682 682 683 684 686 688 688 688 697 697 698 698 700 700 700 700 701 701 703 704 704 704 706 707 707 708 708 711 711 713 713 714 714 716 717 719 720 722 722 722 723 723 725 727 727 728 730 730 731 731 733 733 734 734 741 742 742 744 744 746 746 747 747 747 749 749 752 752 754 757 759 759 761 761 764 764 767 767 767 767 769 769 773 773 776 778 778 778 780 783 785 785 785 787 789 790 792 794 794 796 796 796 798 798 798 802 803 805 807 807 807 811 813 817 817 819 821 821 821 821 823 823 825 827 829 829 831 831 833 833 835 835 835 839 839 843 843 843 849 851 851 851 854 854 854 854 854 858 858 860 860 864 867 867 867 869 871 871 873 873 878 878 880 880 885 885 885 885 885 887 901 903 903 903 898 898 896 896 898 898 901 906 910 913 913 915 915 920 920 923 925 925 928 928 935 935 940 940 940 940 940 940 943 943 943 943 948 954 959 962 962 964 964 967 970 970 973 973 970 970 975 978 987 989 992 992 995 992 992 995 995 998 1004 1004 1007 1007 1010 1010 1013 1013 1016 1013 1013 1013 1019 1019 1022 1022 1022 1025 1034 1038 1038 1038 1041 1041 1041 1041 1047 1047 1050 1050 1054 1060 1063 1063 1067 1067 1073 1080 1087 1087 1090 1090 1090 1090 1097 1097 1101 1101 1101 1108 1108 1108 1112 1112 1119 1123 1126 1126 1130 1130 1130 1130 1130 1130 1145 1145 1153 1157 1157 1157 1157 1161 1161 1161 1161 1161 1161 1165 1177 1177 1181 1185 1189 1193 1193 1197 1197 1197 1193 1193 1193 0 0 0 0 0 0 2908 2908 2883 2883 2883 0 0 0 0 0 0 0 0 0 0 0 0 0 0 0 0 0 0 0 0 0 0 0 0 0
496 496 496 496 493 493 496 497 497 497 497 502 502 496 495 495 495 499 499 499 500 500 500 500 501 502 502 502 502 503 504 505 505 505 505 506 507 507 508 510 511 511 511 511 513 513 513 513 514 515 515 515 515 515 518 517 517 521 521 524 525 526 526 525 525 525 527 529 529 533 533 533 533 534 534 534 534 536 536 538 538 538 539 540 540 540 540 540 544 544 544 545 545 545 545 545 546 547 547 547 548 548 548 550 550 550 550 550 552 554 554 555 556 557 557 557 557 558 558 558 560 561 562 563 564 565 565 565 566 566 566 566 566 566 566 568 569 574 572 572 574 575 575 574 574 574 574 574 574 575 576 577 577 578 579 581 582 584 585 586 586 586 587 588 588 588 589 589 589 589 591 591 593 593 594 595 595 595 601 601 601 602 602 602 602 602 602 601 601 601 608 608 608 609 610 610 609 609 610 614 614 614 614 615 616 616 616 616 619 622 623 623 623 622 622 623 623 622 622 631 631 631 632 632 632 632 634 634 634 634 644 644 644 644 643 641 641 642 642 642 642 642 643 643 643 650 650 650 652 652 655 655 657 658 658 659 659 659 659 662 662 662 662 662 663 663 663 668 670 670 671 671 671 671 671 672 672 676 678 678 678 679 680 682 683 684 687 687 688 688 690 697 697 697 698 698 698 698 700 700 703 703 703 704 706 706 707 707 711 711 711 713 714 714 714 717 717 719 720 720 722 722 723 723 723 723 725 727 728 730 730 730 730 733 733 734 739 739 739 741 744 744 744 746 746 746 747 747 747 749 750 757 757 759 759 759 759 764 764 766 766 767 767 769 769 771 774 774 774 778 778 780 781 781 785 789 789 790 794 794 794 794 794 794 796 796 796 796 798 800 802 802 805 811 813 813 817 819 819 819 819 819 819 823 825 827 827 829 831 831 831 833 833 833 835 837 841 841 843 843 843 843 843 849 849 849 849 849 851 851 854 854 858 860 864 864 867 869 869 871 871 873 875 875 880 882 882 882 882 882 885 882 882 901 901 898 896 896 896 896 898 898 903 903 908 908 910 913 915 915 920 920 920 920 920 930 933 933 940 940 940 940 940 940 940 943 943 946 948 951 954 956 962 962 964 967 967 967 970 967 967 970 970 973 978 984 984 989 989 989 989 992 992 998 998 1001 1001 1007 1007 1010 1010 1013 1013 1013 1013 1013 1016 1019 1019 1019 1022 1025 1028 1031 1034 1038 1038 1038 1038 1041 1044 1047 1050 1050 1054 1060 1060 1060 1063 1063 1063 1073 1084 1084 1087 1087 1087 1090 1090 1090 1090 1097 1101 1105 1105 1105 1112 1115 1119 1119 1119 1123 1126 1126 1130 1130 1130 1134 1138 1141 1149 1153 1153 1153 1153 1157 1157 1157 1161 1161 1161 1165 1169 1177 1177 1185 1189 1189 1193 1193 1193 1193 1189 1189 0 0 0 0 0 0 2908 2908 2883 2883 2883 0 0 0 0 0 0 0 0 0 0 0 0 0 0 0 0 0 0 0 0 0 0 0 0 0
491 491 491 491 491 491 491 497 497 497 497 497 497 496 495 495 495 499 499 499 499 500 500 500 500 501 502 502 502 502 503 504 504 504 504 506 506 506 507 508 510 510 510 511 512 512 512 512 513 514 514 515 515 515 515 515 515 516 516 522 525 525 525 524 524 525 525 525 525 525 531 531 531 531 533 533 533 535 535 536 536 537 537 538 538 538 539 539 541 541 543 544 543 542 542 543 543 546 546 546 547 547 547 548 549 549 549 549 550 553 554 554 555 556 556 556 557 557 558 558 559 559 560 560 562 564 565 565 565 565 565 565 565 565 565 566 567 569 569 570 570 573 574 574 574 574 574 574 574 574 575 575 575 575 576 579 579 581 583 584 585 585 586 586 586 586 587 587 587 587 588 589 591 592 593 593 593 593 593 599 599 600 600 601 601 600 600 600 600 600 601 602 603 606 607 607 607 607 607 609 609 611 611 612 615 615 615 616 616 619 621 621 622 621 621 622 622 622 622 623 628 629 630 630 631 631 631 631 632 632 632 632 632 634 640 638 637 637 638 638 641 641 641 642 642 643 646 648 648 650 655 655 655 657 654 654 654 652 652 661 661 661 662 662 662 662 662 663 666 666 668 670 670 670 670 671 672 675 676 676 676 678 678 678 679 679 679 683 684 686 686 686 690 690 690 696 696 697 697 696 696 697 696 696 704 704 706 706 708 710 710 713 713 713 714 716 716 717 719 719 720 720 720 720 722 722 723 725 725 727 727 728 728 730 730 731 736 736 738 738 741 741 742 742 744 744 744 746 746 746 746 747 749 749 749 749 757 757 759 759 762 764 764 766 766 767 767 771 771 773 773 776 776 778 780 783 781 781 787 787 789 789 789 789 790 790 792 792 794 796 798 798 798 798 798 807 809 813 817 817 815 815 817 819 819 823 823 825 827 829 831 831 831 831 835 835 837 839 839 841 841 841 841 843 847 847 845 845 845 849 851 851 854 854 862 862 867 867 867 867 867 869 871 871 871 878 880 880 880 880 882 880 880 887 887 896 896 896 896 896 896 898 898 901 903 906 908 908 910 913 918 918 918 918 920 920 925 928 928 933 938 938 938 940 940 943 943 946 946 946 948 951 956 959 962 962 962 964 964 964 964 967 967 970 970 975 978 981 981 984 987 987 989 992 992 995 995 1001 1004 1004 1004 1007 1007 1007 1010 1010 1013 1013 1016 1016 1016 1019 1022 1028 1031 1031 1034 1034 1034 1038 1044 1044 1047 1050 1050 1054 1057 1057 1057 1060 1060 1060 1063 1070 1077 1084 1084 1087 1087 1087 1087 1090 1094 1097 1097 1097 1101 1101 1115 1119 1119 1123 1123 1126 1126 1126 1126 1130 1130 1134 1134 1141 1149 1149 1149 1153 1153 1153 1157 1157 1157 1161 1165 1169 1173 1177 1181 1185 1185 1189 1189 1189 1189 1185 1181 1173 1173 0 0 0 2908 2908 2908 2908 2908 0 0 0 0 0 0 0 0 0 0 0 0 0 0 0 0 0 0 0 0 0 0 0 0 0
491 491 491 491 489 489 489 489 489 489 494 494 496 496 496 495 495 495 496 497 499 499 500 500 500 501 501 502 502 502 502 503 503 503 503 504 505 505 505 506 509 509 509 509 510 511 511 511 512 512 513 513 514 514 515 515 514 514 514 522 525 525 523 522 522 524 524 525 525 525 528 528 528 529 529 529 529 529 534 534 534 534 534 535 537 537 537 537 539 540 540 540 540 540 540 541 540 540 546 546 546 546 546 547 548 548 548 548 550 552 554 554 554 555 555 555 556 557 557 557 558 558 559 559 560 562 563 564 565 565 565 565 565 565 565 565 565 566 569 569 569 569 569 570 572 573 573 573 573 573 573 573 574 574 574 576 577 580 581 581 582 582 584 585 585 585 585 586 587 587 587 588 590 590 590 592 591 591 591 591 596 598 598 600 600 599 599 599 599 599 599 600 601 602 603 604 604 604 606 607 607 607 608 612 612 613 613 614 614 614 614 614 614 619 619 620 620 621 621 621 622 622 628 628 630 630 630 630 631 630 630 631 631 631 640 637 636 636 637 637 637 637 640 641 641 642 642 643 643 643 643 650 650 650 652 652 652 652 650 650 652 659 661 661 661 661 661 662 663 663 664 667 667 668 668 670 671 672 672 674 674 675 674 674 672 672 676 680 682 679 679 682 682 683 684 687 687 688 693 694 694 694 694 694 694 693 693 694 694 707 708 710 710 710 714 714 714 716 717 717 719 717 716 716 720 720 720 722 722 722 722 725 727 728 728 731 731 733 734 734 736 736 739 739 741 742 742 742 742 744 744 746 746 747 747 747 747 752 754 755 757 759 761 761 762 766 767 767 767 769 769 773 773 774 776 780 780 780 780 781 783 783 783 787 787 789 789 790 792 792 794 796 796 796 796 803 803 809 809 809 811 811 813 813 813 815 819 821 825 827 829 829 829 829 833 833 835 835 835 837 839 839 839 841 841 843 845 845 845 847 849 851 851 854 854 858 864 864 864 864 864 864 867 862 862 873 875 878 878 880 880 878 878 880 880 885 891 894 894 894 894 896 898 898 898 903 906 906 906 908 915 915 915 915 918 918 918 925 925 930 930 930 930 933 935 943 943 943 943 946 946 948 951 954 959 959 959 962 962 962 964 964 964 967 967 970 975 975 981 981 984 984 987 989 989 989 992 995 1001 1001 1004 1004 1004 1004 1004 1004 1010 1010 1013 1013 1013 1016 1019 1025 1028 1028 1031 1031 1034 1034 1038 1044 1044 1047 1047 1050 1054 1054 1054 1057 1057 1057 1060 1060 1070 1077 1080 1080 1080 1084 1084 1087 1087 1090 1094 1094 1094 1097 1105 1108 1115 1115 1119 1119 1123 1123 1123 1126 1126 1130 1130 1134 1141 1141 1149 1149 1149 1153 1153 1153 1157 1161 1161 1165 1165 1173 1173 1177 1181 1185 1185 1185 1185 1181 1181 1173 1173 0 0 0 0 0 0 0 0 0 0 0 0 0 0 0 0 0 0 0 0 0 0 0 0 0 0 0 0 0 0 0 0 0
491 491 491 491 489 489 489 489 489 489 491 491 495 495 494 494 495 495 496 497 499 499 499 499 499 500 500 501 501 501 502 502 502 502 502 504 504 504 504 504 507 508 509 509 509 510 510 510 510 511 511 512 512 513 512 512 513 513 513 513 513 521 520 520 520 521 523 524 524 525 526 527 527 528 528 528 528 528 529 529 529 529 531 533 534 534 534 535 535 536 537 537 539 539 540 540 540 540 541 544 546 546 546 547 547 547 546 546 546 548 549 550 552 554 554 554 554 556 556 557 556 556 557 557 556 556 560 561 562 564 564 564 564 564 565 565 565 565 567 568 568 569 569 569 571 571 571 571 571 571 572 572 572 573 573 574 573 573 577 578 579 579 580 582 582 582 583 584 584 584 585 588 588 589 589 590 590 589 588 585 585 585 593 593 599 598 598 598 598 598 598 599 600 601 601 602 603 603 604 604 604 606 606 606 607 607 608 611 612 612 614 614 614 615 615 616 618 619 619 619 620 620 620 621 627 628 628 628 628 628 629 629 629 629 631 632 635 635 635 636 636 636 636 640 640 640 640 642 642 642 641 641 650 650 650 650 650 649 649 649 649 649 659 659 659 659 659 661 662 662 663 664 664 666 666 667 668 668 671 672 672 672 672 672 672 672 674 674 678 678 678 679 679 679 679 682 683 683 687 691 693 693 693 693 693 691 691 693 693 696 697 697 698 698 698 714 714 716 716 717 717 716 714 714 716 716 716 716 720 720 722 722 725 727 727 728 728 731 731 733 734 734 736 736 738 739 739 741 741 741 742 742 744 744 746 746 747 749 749 749 752 755 759 759 761 764 764 766 766 766 767 769 771 771 773 774 776 776 776 776 778 780 781 783 783 785 787 789 789 789 790 792 794 794 796 798 798 798 805 807 807 809 809 809 809 811 811 817 821 821 825 825 827 827 829 829 831 829 829 831 835 833 833 835 835 841 843 843 843 845 847 849 849 851 851 854 858 860 860 862 862 864 864 862 862 869 873 875 875 875 875 875 875 878 878 878 882 889 891 894 894 894 896 896 896 901 901 901 903 908 910 913 913 913 915 915 915 915 923 923 925 925 925 925 928 933 935 940 940 940 943 943 946 946 951 954 956 956 959 962 962 964 964 964 967 967 967 967 967 973 973 978 984 984 987 987 989 989 992 995 995 998 998 1001 1001 1001 1007 1007 1010 1010 1013 1013 1016 1019 1022 1025 1031 1031 1031 1034 1034 1038 1041 1044 1044 1047 1047 1050 1050 1054 1054 1054 1057 1057 1063 1067 1070 1077 1077 1080 1080 1084 1087 1087 1087 1090 1090 1094 1097 1101 1101 1112 1112 1115 1115 1115 1119 1126 1126 1126 1126 1126 1134 1138 1141 1149 1149 1153 1153 1153 1157 1157 1157 1157 1157 1161 1161 1165 1169 1169 1177 1181 1181 1177 1177 1173 1173 1177 0 0 0 0 0 0 0 0 0 0 0 0 0 0 0 0 0 0 0 0 0 0 0 0 0 0 0 0 0 0 0 0
487 489 489 489 489 489 489 489 489 489 489 491 495 494 494 492 492 492 491 491 491 499 499 499 499 499 499 499 499 499 499 501 501 501 501 501 502 502 502 502 503 507 507 507 508 509 508 508 509 509 510 511 511 511 511 511 512 512 512 512 520 519 518 518 518 519 520 523 523 524 525 525 525 526 527 527 527 527 528 528 528 529 530 531 532 532 532 533 534 534 534 535 535 536 537 540 540 540 540 540 546 546 546 547 546 546 546 545 545 545 546 546 549 550 552 553 553 554 554 556 555 555 555 555 554 554 555 555 558 560 562 562 563 563 564 564 563 563 566 567 567 568 568 569 569 570 570 570 570 570 571 571 571 572 572 573 573 573 574 574 574 577 577 579 580 581 581 582 583 583 583 585 587 588 588 588 588 588 588 585 585 585 589 590 590 594 597 596 596 597 597 598 598 599 600 601 601 601 602 603 603 603 603 603 604 604 604 606 608 610 610 611 612 612 613 613 614 618 618 618 618 619 619 619 619 622 624 624 624 627 627 627 627 627 629 629 630 632 632 634 635 636 636 637 637 638 638 640 640 636 634 634 650 650 650 649 649 649 649 649 648 647 647 650 650 653 655 657 661 661 661 662 662 663 663 663 664 666 667 670 670 670 670 670 668 668 671 674 675 676 676 678 678 678 678 679 680 682 683 687 688 690 690 691 691 690 690 691 691 693 694 694 694 696 696 697 697 698 707 708 710 711 711 713 713 713 714 714 714 719 720 720 722 722 723 723 725 725 728 730 731 733 734 734 734 738 738 739 739 741 741 742 742 742 744 744 747 747 747 749 750 754 755 755 759 761 762 762 762 764 764 766 767 767 769 769 774 774 774 774 776 776 780 780 780 781 783 785 787 787 787 789 790 790 790 796 796 798 802 803 803 805 809 809 809 809 809 809 811 811 817 819 825 825 827 827 827 827 827 827 829 831 831 833 833 839 841 843 843 843 845 847 847 849 849 849 851 854 856 860 860 860 862 862 862 864 869 869 871 871 873 873 873 875 878 878 882 882 882 889 891 894 894 894 894 896 896 898 898 903 908 908 910 910 910 913 913 913 913 918 920 920 920 923 925 925 928 933 935 935 938 940 940 943 943 948 954 954 954 956 959 962 964 964 964 967 967 967 967 970 970 970 975 981 984 984 987 987 987 989 992 992 992 995 998 998 1001 1004 1004 1007 1007 1013 1013 1016 1019 1025 1028 1028 1031 1028 1028 1034 1034 1038 1038 1041 1044 1044 1047 1047 1050 1050 1054 1057 1060 1057 1057 1067 1070 1073 1073 1080 1080 1080 1084 1084 1084 1084 1087 1087 1090 1094 1108 1108 1108 1112 1115 1123 1123 1123 1123 1123 1126 1130 1134 1141 1149 1153 1153 1153 1157 1153 1153 1153 1153 1153 1153 1157 1157 1161 1165 1165 1169 1173 1169 1169 1173 1173 0 0 0 0 0 0 0 0 0 0 0 0 0 0 0 0 0 0 0 0 0 0 0 0 0 0 0 0 0 0 0 0
486 489 489 489 489 489 489 489 489 489 489 489 489 493 492 491 490 490 491 490 490 490 499 499 499 499 499 498 498 498 498 499 500 500 500 501 501 501 501 502 502 503 504 506 507 507 507 507 507 508 509 511 511 511 511 511 511 511 511 511 512 517 517 517 517 517 518 523 523 523 524 524 524 524 525 526 526 526 527 527 528 528 529 529 530 530 531 531 532 532 533 534 534 534 536 537 538 538 539 539 539 539 540 546 546 546 545 544 544 544 545 545 546 547 548 550 551 551 551 554 554 554 554 554 554 554 554 554 554 555 559 559 561 561 562 562 562 562 564 565 565 567 567 568 567 567 569 569 569 569 569 570 570 571 571 572 573 573 573 574 574 576 576 577 579 580 581 582 582 582 582 584 585 587 587 587 587 587 587 586 586 586 587 588 589 589 590 594 594 594 596 597 598 598 599 599 599 600 600 601 601 601 601 602 602 604 604 604 606 609 609 610 611 612 612 612 612 613 614 615 615 616 618 618 619 620 620 620 622 625 625 625 625 625 625 627 627 629 629 629 632 635 635 635 635 636 636 636 636 636 634 634 634 634 650 649 649 648 648 648 648 647 647 649 649 652 653 653 658 655 655 655 659 659 661 661 662 663 664 666 667 668 668 668 667 667 667 667 672 672 676 676 676 678 678 678 679 680 682 684 684 688 688 688 690 690 690 690 691 691 693 694 694 694 696 696 697 697 698 704 704 708 708 710 710 710 711 713 713 713 714 716 717 720 720 720 722 722 725 727 730 730 731 733 733 736 736 736 738 739 739 741 741 741 742 742 746 747 747 747 749 752 754 754 755 757 759 761 761 761 762 762 764 766 766 767 771 773 773 774 774 776 776 776 778 780 781 781 785 785 785 787 787 787 787 787 789 790 790 800 802 803 803 803 805 805 807 807 807 809 811 813 813 813 813 817 817 825 825 825 827 827 831 831 831 835 837 841 841 843 843 845 845 845 847 849 849 851 851 854 858 858 858 858 858 860 862 864 867 869 869 871 871 871 873 875 875 875 882 885 889 891 891 891 891 891 894 896 896 898 901 906 908 908 908 908 906 906 906 906 910 918 918 920 920 923 920 920 923 933 933 935 938 940 940 943 943 943 951 951 954 956 959 962 964 964 967 967 967 967 967 970 973 978 981 984 984 984 984 984 987 989 989 992 995 995 998 998 998 1001 1004 1007 1010 1013 1013 1022 1025 1025 1028 1025 1025 1028 1028 1028 1028 1028 1041 1041 1044 1044 1047 1047 1050 1057 1054 1054 1054 1057 1060 1060 1060 1073 1073 1077 1080 1084 1084 1080 1080 1084 1084 1084 1094 1105 1105 1108 1108 1115 1119 1119 1119 1119 1119 1123 1126 1134 1141 1145 1149 1149 1153 1153 1153 1149 1149 1153 1153 1153 1153 1153 1157 1157 1157 1161 1161 1161 1165 1173 0 0 0 0 0 0 0 0 0 0 0 0 0 0 0 0 0 0 0 0 0 0 0 0 0 0 0 0 0 0 0 0
483 490 489 488 488 488 488 488 488 488 489 489 489 489 491 491 489 489 489 489 489 489 489 499 499 499 498 497 497 497 497 498 499 499 499 499 499 499 499 499 501 502 503 503 505 506 506 507 507 507 507 509 510 511 511 511 511 511 511 511 511 512 515 515 515 516 516 516 523 523 522 522 522 522 522 524 525 525 527 527 527 528 528 529 529 529 530 530 530 530 530 532 533 534 534 536 537 537 538 537 537 537 537 537 537 539 540 542 542 542 544 544 546 546 546 547 548 548 549 549 554 554 554 554 554 554 554 554 554 554 557 559 559 558 558 560 560 560 560 561 562 564 565 567 566 565 565 565 567 568 568 568 568 570 570 571 572 572 573 573 573 575 575 576 577 578 580 580 581 581 581 581 581 584 585 585 586 586 586 585 585 585 586 587 588 588 589 590 589 589 595 595 596 597 598 598 599 599 600 600 601 601 601 601 601 603 603 604 604 607 609 610 610 611 611 611 611 611 611 613 613 616 616 616 615 614 614 615 615 615 622 623 623 623 624 624 624 627 627 627 629 630 630 631 631 632 634 634 634 634 634 634 634 637 641 642 642 642 646 646 646 647 647 648 648 650 652 652 652 654 654 654 657 657 658 658 659 661 662 663 663 666 667 667 667 667 667 667 668 671 674 675 675 676 676 678 678 679 680 682 683 686 687 687 688 688 688 690 690 691 691 693 693 694 694 696 697 697 698 700 703 706 706 707 707 708 710 710 710 710 713 714 716 717 717 719 719 720 722 723 727 728 728 731 731 733 734 734 736 738 738 739 739 739 741 741 744 746 747 747 749 750 750 752 752 754 755 759 759 759 759 761 762 764 766 766 769 771 771 773 774 774 776 776 776 778 780 781 783 783 783 783 783 785 785 785 789 789 789 789 790 794 800 800 800 802 805 805 805 805 809 813 813 811 811 813 817 817 819 819 821 821 825 827 827 835 835 841 841 841 841 843 843 843 845 845 845 847 847 849 854 854 854 856 856 858 858 858 862 864 867 867 869 869 871 871 871 871 873 885 885 887 887 887 887 887 887 889 889 889 894 898 903 903 903 903 903 901 901 901 906 906 913 915 915 915 918 918 923 923 923 933 933 935 935 938 938 938 940 940 935 935 940 956 962 964 964 964 964 964 964 967 970 973 975 978 978 978 981 981 984 987 987 987 989 992 992 995 995 995 1001 1001 1001 1001 1013 1019 1019 1022 1022 1022 1022 1022 1025 1025 1025 1022 1022 1034 1038 1041 1044 1047 1047 1050 1050 1050 1050 1054 1054 1060 1060 1063 1070 1070 1073 1080 1080 1080 1080 1080 1084 1084 1084 1087 1087 1094 1094 1105 1112 1112 1112 1115 1115 1115 1119 1115 1115 1138 1141 1141 1145 1145 1145 1145 1145 1145 1145 1145 1145 1145 1149 1145 1145 1145 1149 1149 1149 0 0 0 0 0 0 0 0 0 0 0 0 0 0 0 0 0 0 0 0 0 0 0 0 0 0 0 0 0 0 0 0 0
482 482 482 487 487 487 488 488 488 488 488 488 489 489 490 489 489 489 489 489 489 488 488 489 499 499 497 496 495 495 496 496 497 498 498 499 496 496 499 499 499 500 501 503 503 504 505 506 507 507 507 508 509 510 510 509 509 511 511 511 511 511 514 514 514 514 515 515 515 522 522 521 521 521 521 521 521 523 526 526 526 527 527 527 529 529 529 530 530 530 530 531 531 531 533 534 534 535 536 536 536 537 537 537 537 538 538 540 541 541 541 541 543 543 544 544 546 546 547 547 554 554 553 552 552 553 553 554 553 553 554 556 558 557 557 558 559 559 559 559 559 561 562 565 565 565 565 565 565 564 564 565 565 567 568 566 566 570 570 571 572 574 575 576 576 577 579 580 579 579 580 580 580 581 583 583 585 585 585 585 585 585 585 587 587 587 588 589 589 589 589 589 589 589 589 597 597 598 599 599 599 599 599 600 600 602 602 603 603 604 606 607 607 609 610 609 609 609 610 611 611 613 614 613 613 612 612 613 614 614 614 614 621 620 620 621 621 624 624 624 624 628 628 629 630 631 632 634 634 634 634 634 634 637 641 641 640 640 643 643 644 646 647 647 647 648 649 650 650 653 653 653 655 657 658 658 658 659 661 662 662 663 664 666 666 666 667 667 668 668 672 675 675 675 676 676 678 678 679 680 682 683 686 686 687 687 687 687 690 690 691 691 691 693 694 696 696 697 697 698 700 701 704 704 706 707 707 708 710 710 710 711 713 714 716 716 716 717 719 720 723 725 727 728 728 731 733 733 733 734 736 736 738 738 739 739 742 744 746 746 747 747 747 749 749 750 752 754 755 755 755 757 759 759 761 761 766 771 771 773 773 773 774 774 776 778 778 778 780 780 781 781 781 783 783 783 785 787 787 787 789 790 796 796 798 798 802 802 802 803 803 807 807 807 811 811 813 813 817 819 821 821 821 821 819 819 819 837 837 837 839 841 841 841 843 843 843 845 845 845 849 851 851 854 854 856 856 856 856 860 864 867 869 869 869 869 869 869 871 871 878 878 882 885 885 885 882 882 885 885 887 889 891 898 898 898 901 898 898 898 901 903 906 906 913 913 915 915 915 915 918 923 925 928 930 933 935 935 935 938 935 935 938 940 940 948 951 954 962 962 964 964 967 967 970 973 973 975 978 978 981 981 984 984 987 987 989 992 992 992 995 995 998 998 998 1001 1016 1016 1019 1019 1019 1022 1022 1022 1022 1022 1022 1025 1031 1031 1034 1041 1044 1047 1047 1047 1047 1054 1054 1054 1054 1057 1060 1063 1073 1073 1077 1073 1073 1080 1080 1080 1080 1084 1084 1090 1090 1090 1094 1097 1101 1108 1108 1108 1112 1112 1112 1115 1134 1130 1130 1134 1138 1138 1138 1138 1138 1141 1141 1141 1145 1145 1145 1145 1145 1149 1149 0 0 0 0 0 0 0 0 0 0 0 0 0 0 0 0 0 0 0 0 0 0 0 0 0 0 0 0 0 0 0 0 0
481 481 481 487 487 487 487 487 487 487 487 487 487 487 489 489 488 488 489 489 489 488 488 489 494 494 496 495 494 494 494 494 495 495 495 498 496 496 496 496 497 499 499 500 502 504 505 506 506 506 507 507 508 509 509 508 508 509 510 510 510 511 514 514 514 514 514 514 514 514 514 521 521 521 521 521 521 521 521 523 523 525 525 525 525 528 529 529 529 529 529 529 530 530 531 533 533 534 535 534 534 535 536 537 537 537 537 539 540 540 540 540 541 542 543 544 544 545 545 545 545 546 548 550 550 553 553 553 553 553 554 554 555 556 556 557 558 558 558 558 559 559 561 562 562 564 563 563 563 563 563 563 562 562 562 565 565 568 568 569 570 571 571 574 574 575 578 578 578 578 579 579 579 579 579 581 583 584 584 584 584 584 585 586 586 586 587 588 588 588 588 588 589 589 589 590 594 596 597 597 598 598 598 598 599 599 599 600 600 603 603 604 604 604 608 608 608 607 607 608 609 609 611 611 611 610 610 611 613 613 613 614 619 620 620 621 621 621 621 621 624 627 627 629 629 631 631 631 632 632 634 634 634 636 637 637 638 640 641 642 643 646 646 647 647 648 649 649 650 650 652 652 652 654 655 657 657 658 659 661 661 662 664 664 666 666 667 667 667 668 671 672 674 674 675 675 676 676 678 678 680 682 683 683 686 686 686 686 687 687 690 690 690 691 693 693 696 696 697 698 698 700 701 703 704 706 706 706 708 708 708 710 711 714 714 716 716 716 717 719 719 720 722 723 727 728 731 731 733 734 734 736 736 736 738 738 739 741 742 744 746 746 746 747 747 749 750 752 754 754 754 754 755 755 757 757 757 761 771 773 773 773 773 773 773 774 774 776 778 778 778 778 780 780 781 781 783 783 785 787 787 789 790 790 792 794 796 796 796 796 798 798 803 805 807 809 809 811 811 819 819 819 819 817 817 817 817 817 819 823 823 823 839 839 841 843 843 843 845 845 845 847 849 851 851 851 851 854 854 856 858 867 867 867 867 867 869 869 869 869 871 873 875 880 882 882 880 880 880 882 882 885 885 889 894 896 896 896 896 896 898 901 903 906 910 913 913 913 915 913 913 915 918 925 925 928 930 933 933 933 935 935 935 938 938 940 946 948 951 951 956 959 964 964 967 967 970 973 975 978 978 978 978 981 981 981 981 984 987 987 989 989 992 992 995 998 998 1001 1016 1016 1016 1019 1019 1019 1019 1019 1019 1022 1025 1025 1028 1034 1038 1041 1041 1044 1044 1044 1044 1044 1044 1047 1057 1057 1060 1060 1070 1070 1070 1073 1077 1077 1080 1080 1084 1087 1087 1087 1090 1090 1094 1097 1097 1097 1101 1108 1108 1112 1115 1123 1123 1126 1126 1134 1134 1134 1134 1134 1138 1134 1134 1141 1141 1141 1145 1145 1149 0 0 0 0 0 0 0 0 0 0 0 0 0 0 0 0 0 0 0 0 0 0 0 0 0 0 0 0 0 0 0 0 0
481 481 481 481 482 487 487 487 486 486 486 486 485 485 486 487 488 488 488 488 489 489 489 489 491 492 492 494 494 494 494 494 494 494 495 495 497 497 496 496 497 498 497 497 499 500 503 504 504 504 505 505 505 507 508 507 507 508 509 510 510 510 511 514 513 513 512 512 512 512 512 513 519 519 520 520 520 521 521 521 521 522 522 523 525 526 526 527 526 526 529 529 529 529 529 530 530 532 534 534 534 535 536 536 536 536 536 537 539 540 540 540 540 541 542 543 543 544 544 544 544 544 544 548 548 548 550 550 550 550 551 553 554 554 555 556 557 557 558 558 558 559 560 561 561 562 562 562 562 562 562 562 561 560 560 565 565 565 566 568 569 569 569 571 571 570 570 576 576 576 577 577 577 577 577 577 579 582 582 583 584 584 584 585 586 586 586 587 587 587 587 587 589 589 589 589 590 593 595 596 596 597 597 597 597 597 597 597 597 597 597 597 597 604 606 606 606 606 606 606 607 606 606 608 609 610 610 611 612 613 613 614 615 619 619 620 620 620 620 620 624 625 625 627 628 629 630 630 630 632 632 632 634 635 636 637 638 640 641 641 642 643 644 646 646 647 648 648 649 650 650 652 652 652 654 655 657 658 658 659 661 662 663 664 664 664 666 666 667 667 668 671 672 672 674 675 675 675 676 676 679 680 682 682 684 684 684 684 684 686 687 687 688 690 691 691 693 696 697 697 698 698 700 701 703 704 706 706 707 707 708 708 710 711 713 713 714 716 716 717 717 719 719 720 720 720 720 723 730 733 733 734 734 734 734 734 734 736 738 741 744 744 744 746 746 746 747 749 750 752 752 754 755 755 755 755 757 759 761 767 767 771 771 771 771 771 771 773 774 774 774 776 778 778 780 780 780 781 783 785 787 787 789 789 790 792 792 794 794 794 794 798 800 803 807 809 809 811 811 815 815 817 817 817 817 817 817 817 819 821 823 823 825 827 827 839 841 843 843 843 843 843 845 845 847 849 849 851 851 851 851 864 864 864 864 864 864 864 864 864 864 869 871 873 878 878 878 878 878 880 880 880 880 882 887 891 894 896 896 896 896 898 901 906 906 913 913 913 913 913 913 913 915 915 923 925 928 928 928 930 930 930 933 933 933 933 933 943 946 946 948 948 948 954 956 962 964 970 970 973 973 975 975 978 978 978 978 978 981 984 984 987 989 989 989 992 992 995 995 998 1007 1016 1016 1016 1016 1016 1019 1019 1019 1019 1019 1025 1031 1034 1034 1038 1041 1044 1044 1041 1041 1047 1054 1054 1057 1057 1063 1063 1063 1067 1070 1073 1073 1073 1084 1084 1084 1084 1087 1087 1090 1090 1094 1097 1097 1101 1105 1108 1108 1108 1115 1119 1119 1126 1130 1130 1130 1134 1134 1134 1134 1134 1138 1141 1141 1141 1145 0 0 0 0 0 0 0 0 0 0 0 0 0 0 0 0 0 0 0 0 0 0 0 0 0 0 0 0 0 0 0 0 0
480 480 480 480 482 482 482 484 484 484 484 484 484 484 485 487 487 487 488 488 488 487 487 489 491 491 491 491 492 492 493 493 494 494 494 495 496 496 496 496 497 498 497 497 499 499 501 502 502 503 503 504 504 505 507 507 507 507 508 509 509 509 510 511 511 511 511 511 511 511 512 513 517 517 518 518 518 519 519 520 521 521 521 521 522 522 523 525 525 525 526 526 527 527 529 529 529 529 532 532 533 534 535 535 535 535 535 535 536 538 539 540 540 540 540 540 541 542 543 543 543 543 543 544 545 547 547 549 549 549 550 551 551 552 552 553 554 554 555 555 557 558 559 559 560 560 561 561 561 561 561 561 560 559 559 561 562 562 563 565 567 568 568 569 570 569 569 569 575 575 576 577 576 576 576 576 578 579 582 582 583 583 584 584 585 585 585 585 586 586 585 585 587 588 588 588 588 588 588 589 595 596 596 596 596 595 595 595 595 595 595 596 596 596 599 603 603 604 604 604 606 606 606 607 608 609 609 610 612 612 613 613 614 616 618 618 619 619 619 619 623 623 624 625 627 627 628 629 630 631 631 632 632 634 635 636 637 638 640 641 641 642 643 644 644 646 647 647 648 649 650 650 652 652 652 654 654 657 658 659 659 661 662 663 663 663 666 666 666 666 667 668 671 671 672 672 674 674 675 675 676 679 679 679 682 682 682 683 683 683 686 686 687 687 688 688 690 693 696 697 697 698 698 700 700 701 703 704 704 707 707 708 708 710 711 711 713 714 714 714 716 716 717 717 719 719 720 722 722 727 730 731 731 731 733 733 733 733 734 734 734 739 739 744 744 744 746 746 749 749 750 750 752 754 754 754 755 757 757 762 761 761 767 767 767 767 767 767 767 771 773 773 774 776 776 776 778 780 781 783 785 785 787 787 787 789 790 790 792 792 792 796 798 800 803 807 809 811 811 811 811 813 813 815 815 815 815 815 817 819 821 821 825 827 827 827 827 829 839 839 837 837 841 843 843 845 845 845 845 847 847 847 851 860 860 862 862 862 862 862 862 867 869 869 873 873 873 875 875 878 878 878 880 880 880 885 889 894 894 894 894 896 898 901 903 908 910 910 910 910 910 913 913 913 915 923 925 925 925 928 928 928 928 930 930 933 933 940 940 938 938 946 946 946 948 948 951 956 959 964 964 970 970 973 973 973 975 975 978 981 981 984 984 984 987 987 987 989 989 989 995 1001 1007 1010 1010 1013 1016 1016 1016 1016 1016 1016 1028 1031 1031 1034 1038 1041 1041 1041 1041 1041 1050 1054 1054 1057 1060 1060 1060 1063 1067 1070 1073 1073 1077 1080 1080 1084 1084 1084 1087 1087 1090 1094 1097 1101 1105 1108 1108 1108 1112 1115 1115 1119 1126 1126 1130 1130 1134 1130 1130 1134 1138 1141 1141 1141 1145 0 0 0 0 0 0 0 0 0 0 0 0 0 0 0 0 0 0 0 0 0 0 0 0 0 0 0 0 0 0 0 0 0
480 480 480 480 480 481 481 481 481 481 482 482 482 483 483 485 486 485 485 489 487 487 487 487 489 489 489 489 490 490 490 491 492 492 494 494 495 495 495 496 496 497 497 497 498 499 499 500 501 502 502 502 502 502 502 505 506 503 503 507 507 507 509 510 511 511 511 511 511 511 511 513 515 515 517 517 517 517 517 518 519 519 519 520 521 521 521 522 524 524 524 525 526 526 527 526 526 527 527 530 530 531 532 534 534 534 534 534 535 535 536 538 538 539 539 539 539 540 540 542 542 541 541 542 543 545 545 548 548 548 549 549 549 550 550 551 552 553 553 553 554 556 557 557 558 559 559 559 559 559 559 560 559 558 558 560 561 561 562 562 564 565 566 567 569 569 569 569 570 570 573 575 576 576 576 576 577 577 577 579 580 583 583 583 583 584 583 583 584 584 584 584 586 587 587 586 586 586 586 586 595 594 594 595 595 595 595 595 595 595 595 596 596 596 597 602 602 604 604 604 606 606 606 606 607 608 609 610 611 612 612 613 613 614 615 616 618 618 618 618 619 620 623 623 625 627 627 628 630 631 631 631 632 632 634 634 635 637 638 640 640 641 642 642 642 644 646 646 647 648 649 650 650 652 652 653 653 655 658 658 658 661 661 662 662 662 663 664 666 666 666 667 668 670 671 671 672 674 674 675 675 676 678 678 678 680 680 680 682 682 683 683 686 687 687 688 688 690 693 694 696 696 697 697 697 698 700 700 700 704 706 707 707 708 708 708 708 708 713 713 713 714 716 716 717 717 719 719 719 720 723 727 728 731 731 730 730 731 731 733 734 734 734 734 738 741 741 742 746 747 747 747 750 752 752 752 752 752 754 755 759 761 764 762 762 764 762 762 764 767 769 769 771 773 773 773 774 778 780 781 781 783 785 785 787 787 787 787 790 790 790 792 792 794 796 800 803 809 809 809 809 809 811 811 813 813 813 813 817 819 819 819 825 825 825 825 825 825 827 827 829 829 829 835 839 841 843 845 845 845 845 845 849 851 858 858 860 860 860 860 860 862 864 867 869 871 871 873 873 875 875 878 880 880 880 882 889 891 891 894 894 896 896 896 898 903 908 908 908 908 908 910 910 910 913 915 923 923 923 923 923 925 925 928 928 930 930 935 938 938 938 943 940 940 946 946 946 948 951 956 956 956 956 959 964 970 973 973 975 978 978 981 984 984 984 987 987 987 987 989 992 998 1001 1001 1007 1010 1010 1013 1013 1013 1013 1013 1016 1028 1031 1031 1034 1038 1038 1038 1041 1041 1047 1050 1054 1054 1057 1057 1057 1060 1060 1067 1070 1073 1073 1077 1080 1080 1084 1084 1087 1087 1090 1090 1097 1101 1105 1108 1108 1112 1112 1115 1115 1119 1126 1126 1126 1130 1130 1130 1130 1134 1138 1138 1141 1141 1141 0 0 0 0 0 0 0 0 0 0 0 0 0 0 0 0 0 0 0 0 0 0 0 0 0 0 0 0 0 0 0 0 0
478 479 479 480 480 480 481 481 481 481 481 481 482 482 482 483 484 484 485 489 487 487 487 487 488 488 488 488 488 489 488 488 489 490 490 491 494 494 494 496 496 496 496 496 497 498 499 499 499 500 500 501 501 501 500 500 500 502 502 507 506 506 509 509 510 510 510 510 511 511 511 513 513 513 514 515 516 516 517 518 518 518 519 519 521 521 521 521 522 522 523 524 524 525 525 525 525 526 526 529 529 529 529 529 533 533 533 533 534 534 534 536 536 537 537 537 537 538 539 540 540 540 541 541 542 543 544 544 547 547 547 547 548 548 548 548 550 549 549 550 552 554 556 556 557 558 558 558 557 557 558 558 558 558 558 560 560 560 561 561 562 564 565 565 567 568 568 569 569 570 570 573 574 575 575 574 574 574 574 575 577 577 581 581 581 581 581 581 581 581 582 583 583 583 585 585 585 585 586 586 586 592 592 593 593 593 594 594 594 594 594 595 595 596 596 598 601 603 603 603 604 604 604 606 606 607 608 609 610 611 611 612 612 613 614 616 616 618 618 618 619 619 619 623 624 624 624 625 625 630 631 631 631 631 632 634 634 634 638 640 640 640 641 641 641 641 642 643 646 647 649 649 650 650 650 650 652 654 655 657 657 658 659 661 661 661 661 663 664 664 664 666 667 668 670 670 671 672 672 674 674 675 676 676 676 678 678 679 680 682 682 682 683 684 686 687 687 688 691 690 690 694 694 694 697 697 698 697 697 700 703 703 704 706 707 706 706 707 710 710 710 713 713 714 716 716 716 714 714 714 719 722 725 728 728 728 728 730 730 731 733 733 734 734 734 736 738 741 739 739 741 746 749 749 750 749 749 749 750 750 754 759 761 761 761 762 761 761 762 766 766 767 769 769 771 771 771 773 774 778 780 780 781 783 785 783 783 787 787 787 787 790 790 790 789 789 790 790 800 800 802 800 800 802 802 803 803 811 811 815 815 817 819 821 821 823 823 823 825 825 827 827 827 829 833 837 839 839 841 841 841 843 845 849 851 854 856 856 856 858 858 860 862 862 864 869 871 871 873 873 873 875 878 878 878 878 878 889 889 891 894 894 894 894 894 901 906 906 906 906 906 908 908 908 913 915 920 920 923 923 923 923 925 925 925 928 928 933 935 935 935 940 940 940 943 943 943 946 948 951 951 954 954 956 959 962 964 967 967 973 975 978 978 981 984 984 984 987 987 989 989 995 995 998 1001 1004 1007 1010 1010 1010 1010 1013 1013 1019 1028 1031 1031 1034 1034 1034 1034 1038 1044 1044 1047 1054 1054 1057 1057 1060 1060 1067 1067 1070 1073 1077 1080 1080 1084 1084 1087 1087 1090 1090 1097 1101 1105 1105 1108 1112 1112 1115 1115 1119 1123 1126 1126 1126 1130 1130 1130 1134 1134 1138 1138 1141 1141 0 0 0 0 0 0 0 0 0 0 0 0 0 0 0 0 0 0 0 0 0 0 0 0 0 0 0 0 0 0 0 0 0
477 478 478 479 479 480 481 481 481 481 481 481 482 482 482 482 482 482 482 482 485 485 487 487 487 487 487 487 487 488 488 488 489 489 489 490 492 494 494 494 494 496 496 496 496 497 497 498 499 499 499 500 500 500 500 500 500 500 502 502 502 505 507 507 507 507 508 509 509 511 511 512 512 512 513 514 515 515 515 517 518 518 518 518 520 520 520 521 521 521 522 523 523 524 525 524 524 525 525 525 527 527 527 527 531 531 531 531 533 534 534 534 535 536 536 536 536 536 537 538 539 540 540 541 541 542 543 543 543 544 546 546 547 547 547 547 548 548 548 549 551 553 554 554 554 554 556 556 555 555 555 555 556 556 556 557 559 559 559 559 559 561 562 565 567 568 568 568 568 570 570 572 573 573 574 573 573 573 573 573 573 574 575 576 578 578 578 578 578 579 580 580 581 581 583 584 584 585 585 585 585 586 591 592 592 593 593 593 593 593 594 595 595 596 596 597 599 600 601 602 603 603 604 604 606 607 607 608 609 610 610 611 612 613 614 616 616 616 616 616 618 618 619 619 621 622 623 623 623 630 630 629 629 630 630 629 629 631 635 640 640 640 640 640 640 640 641 641 642 643 643 647 647 649 649 649 650 650 652 653 653 653 654 654 658 658 658 658 661 661 661 662 664 666 667 667 667 670 671 671 672 674 676 675 675 676 678 678 679 680 680 680 680 683 683 686 686 687 688 687 687 687 693 694 693 693 693 694 694 696 696 697 698 701 703 703 704 704 704 706 707 710 711 713 714 714 714 713 713 713 714 717 717 725 727 727 727 727 728 730 731 733 733 733 733 733 733 731 731 733 739 741 741 746 746 746 746 746 747 747 747 747 757 759 759 759 761 761 761 762 764 766 767 769 769 769 769 769 769 769 776 780 780 780 780 781 781 783 783 785 785 787 789 789 789 789 790 790 790 790 796 798 798 800 802 803 803 805 807 809 811 813 813 819 819 819 819 821 823 823 825 825 825 827 827 831 833 837 837 839 837 837 839 839 841 845 851 854 854 854 856 858 858 860 862 864 867 869 869 871 871 873 875 875 878 875 875 878 880 887 891 891 891 889 887 887 896 901 898 898 903 906 906 906 908 910 913 913 915 915 918 920 923 923 923 923 925 928 930 933 933 935 935 935 935 935 940 943 946 948 948 954 954 956 959 959 962 964 964 967 970 970 973 978 978 984 984 987 987 987 989 992 995 998 998 1001 1004 1010 1010 1010 1010 1013 1013 1019 1025 1028 1031 1031 1034 1034 1034 1038 1041 1044 1047 1050 1050 1054 1054 1060 1060 1067 1067 1070 1073 1077 1080 1080 1080 1084 1087 1087 1090 1094 1094 1101 1105 1105 1108 1112 1112 1112 1115 1115 1123 1126 1126 1126 1126 1130 1130 1130 1130 1134 1134 1138 1141 0 0 0 0 0 0 0 0 0 0 0 0 0 0 0 0 0 0 0 0 0 0 0 0 0 0 0 0 0 0 0 0 0
476 477 477 478 478 480 482 481 481 481 481 481 482 481 481 482 481 478 477 477 485 485 485 487 487 484 484 484 484 487 488 488 488 489 489 489 492 493 493 491 491 491 491 493 496 496 496 496 497 497 498 498 499 499 499 499 499 499 499 500 501 504 505 505 506 507 507 507 508 510 511 512 512 512 512 512 514 513 512 512 517 517 517 517 518 519 520 520 521 521 521 521 521 523 523 523 523 525 525 525 527 527 526 526 528 530 530 530 532 532 533 533 534 535 535 535 535 535 536 537 537 539 540 540 540 540 541 541 542 543 544 545 546 546 546 547 547 547 546 546 547 552 553 554 554 554 555 555 554 554 554 554 555 555 554 554 554 557 556 556 558 558 558 559 559 560 562 563 564 564 568 569 570 571 572 572 572 571 571 572 572 572 573 573 575 576 577 577 577 578 578 579 579 580 582 583 584 584 585 585 585 585 586 591 591 591 592 592 593 593 593 594 594 595 595 596 597 598 600 601 602 603 603 604 604 606 606 607 608 609 610 611 611 612 614 615 616 616 616 616 616 618 618 619 619 620 621 622 622 623 625 628 628 628 628 628 628 628 628 629 638 638 638 638 638 638 640 640 641 641 643 646 647 647 647 647 647 648 648 649 650 650 652 652 655 657 657 657 657 658 658 658 661 662 666 666 667 668 670 670 671 672 675 675 675 675 676 676 678 679 680 679 679 680 682 684 684 686 687 686 686 686 687 687 688 690 691 693 693 693 694 694 697 698 700 701 701 701 703 703 704 706 708 710 711 711 711 711 711 711 711 711 713 719 719 725 725 725 725 725 728 731 731 731 731 731 731 731 731 733 734 736 736 736 741 742 742 744 746 746 747 747 747 755 755 757 757 759 759 761 761 764 766 767 769 769 769 767 767 767 773 774 776 776 776 778 778 780 781 781 783 787 787 789 789 789 789 789 789 789 790 792 796 798 800 802 802 802 803 805 807 813 813 815 815 817 819 819 821 821 823 823 823 823 825 829 831 833 833 837 835 835 837 837 837 841 845 847 849 849 851 856 856 858 858 860 864 864 864 864 867 867 869 871 873 873 873 875 875 878 878 880 887 887 887 887 887 887 889 891 896 903 903 903 903 903 906 910 910 910 913 913 915 920 920 920 923 925 928 928 930 930 933 933 933 933 935 940 943 946 946 951 951 954 956 959 962 962 962 964 967 970 973 973 975 978 981 981 984 987 987 989 995 995 998 1001 1004 1007 1010 1010 1010 1013 1016 1019 1022 1025 1031 1031 1034 1034 1034 1038 1041 1044 1047 1047 1050 1054 1054 1060 1060 1067 1067 1070 1073 1077 1077 1080 1080 1084 1087 1087 1090 1094 1094 1101 1105 1108 1108 1112 1112 1112 1115 1115 1123 1126 1126 1126 1126 1130 1130 1130 1130 1134 1134 1138 1141 0 0 0 0 2639 2618 2618 2618 0 0 0 0 0 0 0 0 0 0 0 0 0 0 0 0 0 0 0 0 0 0 0 0 0
475 474 473 473 473 472 472 481 480 480 480 480 480 478 478 475 475 476 476 476 476 477 478 482 482 483 484 483 483 484 486 486 487 487 486 486 486 486 487 489 489 489 489 490 491 491 491 494 494 494 497 497 498 498 499 499 499 499 499 499 499 499 505 505 506 506 507 507 507 508 511 511 511 511 511 511 511 511 511 511 514 516 516 516 516 517 517 517 517 519 519 520 521 521 521 522 522 523 525 525 525 525 525 525 526 528 529 529 529 530 531 531 532 533 534 534 534 534 535 535 535 536 538 539 539 539 540 540 540 541 543 544 544 545 545 546 546 546 546 546 547 550 550 554 554 554 554 554 554 554 554 554 554 554 554 554 554 554 554 555 557 557 557 558 558 559 560 562 562 562 562 562 563 568 568 570 570 570 570 571 571 572 572 573 574 574 575 576 576 577 577 578 578 579 582 582 583 584 584 584 584 585 585 586 590 590 591 592 592 592 592 593 593 594 594 595 596 597 598 600 601 601 602 603 603 604 606 606 607 609 610 611 611 611 613 614 616 616 616 616 616 616 616 616 618 619 619 620 620 622 623 625 625 627 628 627 627 627 628 629 631 631 636 636 636 636 637 637 638 637 637 638 646 646 646 646 646 647 647 648 648 649 650 650 652 654 655 655 655 657 657 657 658 658 661 663 664 664 666 667 670 672 674 674 674 674 675 675 675 676 679 676 676 678 679 679 679 682 684 684 684 684 686 686 686 687 690 691 691 693 693 693 693 694 696 698 698 700 700 701 701 704 706 708 710 710 710 710 710 710 708 708 710 710 719 719 720 720 720 722 722 723 725 727 728 730 730 730 731 731 733 734 734 734 739 741 741 741 742 744 744 746 746 749 750 752 754 755 757 757 757 759 762 766 766 766 766 766 767 767 771 773 774 774 774 776 776 776 778 780 780 781 781 783 785 785 787 787 787 787 789 789 792 796 800 800 800 800 802 803 805 809 809 809 809 809 817 817 819 819 821 821 821 821 821 823 827 829 829 835 835 835 835 835 835 837 837 841 847 847 847 847 849 851 851 854 860 860 860 860 862 862 862 862 869 871 871 873 873 875 875 878 878 882 882 882 885 885 887 889 889 889 896 898 901 901 903 906 906 908 908 910 913 915 920 920 923 923 925 928 928 928 930 933 933 933 935 940 943 943 946 948 948 954 956 956 959 959 962 962 964 967 970 973 975 978 981 981 984 987 987 989 995 995 998 1001 1004 1007 1010 1010 1010 1013 1016 1019 1022 1025 1031 1031 1034 1034 1034 1038 1041 1044 1044 1047 1050 1054 1057 1060 1063 1067 1070 1070 1073 1077 1077 1080 1080 1084 1087 1090 1094 1097 1101 1101 1108 1108 1112 1112 1112 1115 1115 1119 1123 1126 1126 1126 1130 1130 1130 1130 1130 1141 1141 1141 1141 2701 2680 2659 2659 2639 2618 2618 2618 0 0 0 0 0 0 0 0 0 0 0 0 0 0 0 0 0 0 0 0 0 0 0 0 0
473 472 472 472 472 472 472 472 478 478 479 480 478 477 477 474 474 476 476 476 476 476 478 478 482 482 482 482 482 482 483 484 485 484 484 484 484 484 487 487 487 487 487 488 488 488 490 492 493 494 494 496 497 497 498 499 499 499 499 499 499 499 498 498 506 506 506 507 507 507 509 510 511 510 510 509 509 510 510 510 510 515 515 514 514 514 515 514 514 515 516 516 519 519 520 520 522 522 524 524 524 525 525 525 526 527 527 527 527 529 529 529 529 530 533 533 533 534 534 534 534 534 535 537 537 537 538 538 538 540 540 542 543 544 544 545 546 546 546 547 547 547 547 550 550 551 551 552 552 552 552 552 553 553 552 552 554 554 554 554 555 557 557 557 558 558 559 560 561 561 561 562 563 564 565 568 568 569 569 569 570 571 572 572 573 574 574 574 575 576 576 577 578 578 581 581 582 583 583 584 584 584 585 586 588 589 589 591 591 591 592 592 593 593 593 595 596 596 597 599 600 601 601 602 602 603 604 604 606 609 609 611 611 611 612 613 614 614 614 614 615 615 615 615 616 616 619 619 619 620 621 623 623 625 627 627 627 627 627 628 628 631 632 635 634 634 635 636 637 636 636 636 637 641 643 643 644 644 647 647 648 648 648 649 649 650 653 653 653 654 655 655 658 658 658 659 659 661 661 664 664 668 671 671 671 672 672 671 671 671 674 674 674 674 675 676 676 676 679 683 683 683 684 683 683 687 688 690 690 691 691 691 693 693 693 696 697 698 698 700 700 703 704 707 707 708 708 708 708 710 708 708 710 710 711 711 717 717 719 719 719 722 722 723 727 728 730 730 730 731 733 734 734 734 738 741 741 741 742 744 744 744 744 746 746 746 750 752 752 754 754 755 755 766 764 764 764 764 764 766 766 771 773 773 773 774 774 774 776 776 776 778 780 781 783 785 785 785 787 787 787 789 789 792 798 798 798 798 802 802 802 805 807 805 805 805 809 809 815 817 819 819 819 819 819 819 823 825 825 825 831 831 831 833 833 835 835 835 839 843 843 843 845 847 847 847 849 851 851 860 860 860 860 862 862 867 869 869 871 873 875 875 875 878 882 882 882 885 885 887 889 889 894 894 896 898 898 903 906 906 906 908 913 915 918 920 923 923 925 925 928 928 930 933 933 933 938 940 940 943 946 946 946 951 954 956 959 959 962 962 964 967 970 973 975 978 981 981 984 987 987 989 995 995 998 1001 1001 1007 1010 1010 1010 1013 1016 1019 1025 1025 1031 1031 1034 1034 1038 1038 1044 1044 1044 1047 1050 1054 1057 1060 1063 1067 1070 1070 1073 1077 1080 1080 1084 1084 1090 1094 1097 1101 1101 1101 1108 1112 1112 1112 1112 1115 1115 1123 1126 1126 1126 1126 1130 1130 2789 2767 2767 2744 2723 2723 2701 2680 2659 2639 2639 2618 2598 2598 2598 0 0 0 0 0 0 0 0 0 0 0 0 0 0 0 0 0 0 0 0 0 0 0 0 0
472 471 471 471 471 471 471 471 478 478 479 477 477 476 475 474 474 475 475 475 476 476 477 478 478 478 482 482 482 482 482 482 483 482 482 483 483 483 484 486 486 487 487 488 488 488 489 489 490 491 491 492 494 494 496 496 498 498 499 499 499 498 497 497 497 506 506 507 507 507 506 506 507 508 508 508 508 509 509 509 509 509 514 514 514 514 514 514 514 514 515 516 516 517 517 517 517 518 519 523 524 524 524 525 525 525 526 526 526 528 529 528 528 528 529 532 532 533 534 534 534 534 534 536 536 536 536 537 537 538 538 540 541 542 542 543 543 544 544 546 546 545 545 547 548 548 549 550 551 551 550 550 551 551 551 551 552 553 554 554 554 554 556 556 557 558 558 559 560 561 561 561 562 563 564 567 567 568 568 568 569 570 571 571 572 572 573 573 574 576 576 576 577 578 580 581 581 582 582 583 584 584 585 585 586 587 588 589 589 590 590 591 592 593 593 593 594 595 595 596 599 600 600 601 601 601 601 601 601 601 604 610 610 610 610 610 611 611 612 612 614 614 614 614 615 616 618 618 618 619 620 621 621 625 625 627 625 625 625 625 625 627 629 632 632 632 632 634 636 634 634 634 635 637 641 641 644 644 646 646 646 647 647 647 648 650 652 652 652 653 654 654 654 655 655 655 657 658 658 659 661 662 663 667 668 670 671 668 668 670 671 672 671 671 671 672 674 674 675 678 680 680 682 682 682 684 688 688 688 690 691 691 691 691 691 693 694 696 697 698 698 698 701 703 704 706 707 707 708 708 708 708 708 708 710 710 711 716 717 717 717 719 720 722 723 725 727 728 728 730 733 733 733 734 736 739 739 739 739 741 741 742 742 742 744 744 747 747 747 747 750 754 754 764 764 764 762 762 762 762 762 764 771 773 773 773 773 774 774 774 774 776 776 778 780 781 785 785 787 787 787 787 789 789 796 796 796 798 800 800 800 800 805 803 803 803 805 809 811 811 811 817 817 817 817 817 819 821 821 821 823 825 825 831 831 831 833 833 835 839 841 841 843 843 845 845 845 847 849 851 854 856 858 858 860 862 867 867 869 871 871 873 873 875 880 880 882 882 885 885 887 889 891 894 896 896 898 898 903 906 906 908 913 915 918 918 920 923 925 925 925 928 928 930 933 933 935 940 940 940 943 946 946 951 954 956 959 959 959 962 964 967 970 973 975 978 981 984 984 987 989 992 995 995 998 1001 1001 1007 1007 1010 1010 1013 1016 1022 1025 1028 1031 1034 1034 1034 1038 1038 1044 1044 1044 1047 1054 1057 1057 1063 1063 1067 1067 1070 1073 1077 1077 1080 1084 1084 1090 1094 1097 1101 1101 1101 1108 1112 1112 1112 1115 1115 1119 2789 2767 2744 2744 2744 2744 2744 2744 2767 2767 2744 2701 2701 2680 2680 2639 2639 2618 2618 2598 2598 2598 0 0 0 0 0 0 0 0 0 0 0 0 0 0 0 0 0 0 0 0 0 0 0 0 0
470 470 470 470 470 470 470 471 471 469 475 475 475 474 474 474 474 474 474 475 476 476 477 477 478 478 478 478 478 479 479 479 480 480 482 482 482 482 482 484 484 485 486 487 487 487 489 489 489 490 491 491 491 492 494 494 496 496 497 497 497 497 497 497 497 497 497 496 505 505 505 504 504 506 506 507 507 507 507 508 508 508 509 511 511 511 513 513 513 514 514 514 515 515 516 517 517 517 518 522 523 523 523 524 524 524 525 525 525 526 527 527 527 528 528 529 529 530 532 533 534 534 534 535 535 535 535 536 536 537 537 538 540 540 540 541 541 541 542 543 543 541 540 540 547 547 548 548 549 549 549 549 550 550 551 551 552 552 553 554 554 554 555 555 556 557 558 558 559 560 560 561 561 562 564 566 567 567 567 568 568 569 569 570 570 571 572 572 573 574 575 576 576 578 579 579 580 580 581 582 583 584 584 585 585 586 586 588 588 588 588 590 590 592 592 592 593 594 594 594 595 595 598 598 598 597 597 599 599 600 601 601 601 608 608 608 608 609 609 609 612 612 613 614 615 616 618 618 618 618 618 619 619 621 621 623 623 623 623 623 623 624 625 627 630 631 632 632 632 632 634 634 634 635 636 638 640 642 642 642 642 642 644 644 644 647 650 650 650 652 653 653 653 653 654 654 655 655 655 655 657 657 658 662 663 666 668 667 667 668 668 671 670 670 671 671 672 672 674 675 678 678 680 680 680 682 683 684 684 687 688 688 687 687 690 691 691 693 696 697 697 697 698 700 701 703 704 706 707 707 707 707 707 707 708 708 710 713 714 714 714 716 717 719 720 722 723 727 727 727 730 730 730 730 730 736 736 736 736 738 739 738 738 741 741 741 744 746 746 746 747 749 749 749 750 752 761 761 761 761 761 761 761 767 769 771 771 773 773 773 773 773 774 774 776 778 781 781 785 785 785 785 785 787 789 789 794 794 796 796 798 800 803 803 803 803 805 807 809 809 809 809 815 811 811 817 819 821 821 821 821 823 825 827 829 831 831 831 833 837 839 839 841 843 845 845 845 847 847 851 851 854 856 858 860 860 862 862 867 869 869 871 873 875 878 880 880 882 882 885 887 887 891 894 894 896 896 898 903 906 906 908 910 915 918 918 920 923 923 925 925 925 925 930 933 933 935 938 940 940 943 946 946 951 954 956 959 959 959 962 964 964 967 970 975 978 981 981 981 984 989 992 995 998 998 1001 1004 1007 1007 1010 1010 1013 1016 1022 1025 1028 1031 1034 1034 1034 1038 1038 1044 1044 1044 1047 1054 1057 1057 1060 1060 1063 1063 1070 1073 1077 1077 1080 1084 1087 1090 1097 2958 2958 2958 2958 2883 2883 2859 2859 2835 2812 2789 2789 2767 2744 2744 2744 2744 2744 2744 2767 2767 2701 2680 2680 2680 2659 2639 2639 2618 2598 2598 2579 2579 0 0 0 0 0 0 0 0 0 0 0 0 0 0 0 0 0 0 0 0 0 0 0 0 0
470 470 470 470 470 470 470 469 469 469 474 474 474 474 474 474 474 474 474 475 475 475 476 477 477 477 478 478 478 478 478 479 479 479 481 481 481 481 481 482 482 480 480 485 486 487 488 488 488 489 490 490 491 491 492 492 493 493 496 496 496 496 496 497 496 496 496 496 497 499 499 499 500 504 504 505 505 505 507 507 507 507 508 509 510 510 511 511 511 513 514 514 514 514 515 516 516 517 517 517 517 521 522 522 523 523 524 524 524 525 525 526 526 527 527 528 528 528 528 531 531 532 533 534 534 534 534 534 534 536 536 537 537 538 539 540 540 540 540 540 541 541 540 540 542 545 546 546 546 547 547 549 549 550 550 551 552 552 553 554 554 554 555 555 556 557 557 558 558 558 559 560 560 560 561 565 567 567 567 567 567 567 568 568 568 571 571 571 572 572 573 574 576 576 577 578 577 577 577 577 578 582 583 584 584 585 585 587 587 587 587 588 588 591 591 591 592 593 593 593 593 593 595 596 596 597 597 598 598 599 599 600 601 601 601 604 606 607 607 606 606 608 610 612 613 614 616 616 616 616 616 616 618 618 618 621 621 622 622 622 622 623 624 625 628 630 631 632 631 631 632 631 631 632 632 635 637 638 641 640 638 638 641 642 643 643 643 646 647 649 650 652 652 652 653 653 654 654 655 655 655 655 657 658 658 658 659 661 662 666 667 668 668 668 670 670 671 672 672 674 675 675 678 679 678 678 678 680 682 683 687 687 687 687 688 690 690 690 691 694 696 696 697 697 698 700 700 703 706 707 706 706 706 704 703 703 703 713 713 714 714 716 717 717 717 719 720 722 722 722 723 727 727 727 727 731 733 733 733 734 736 736 736 738 738 741 742 744 746 746 746 747 747 747 749 750 752 752 752 752 754 755 755 755 767 769 771 771 771 771 771 771 773 773 773 776 778 778 781 783 783 783 783 783 785 785 787 790 792 794 794 796 796 802 802 802 803 803 805 807 807 807 809 809 809 811 815 817 817 817 819 819 821 827 827 829 831 831 833 835 835 837 841 843 843 845 845 845 847 849 851 854 856 858 858 860 860 862 867 869 869 871 873 873 878 878 880 882 882 885 887 887 889 894 894 896 896 898 903 906 906 908 908 913 915 918 920 920 923 925 925 925 925 930 930 933 935 938 940 940 943 943 943 951 954 959 959 959 959 962 962 964 967 970 975 978 978 978 981 984 989 992 995 998 998 1004 1004 1007 1007 1010 1010 1013 1019 1022 1028 1031 1034 1034 1034 1034 1038 1041 1044 1044 1044 1047 1054 1057 1057 1060 1060 1063 1063 1070 1070 2958 2958 2958 2933 2933 2908 2908 2933 2908 2908 2883 2883 2883 2859 2859 2835 2812 2812 2812 2789 2789 2789 2767 2767 2767 2767 2767 2744 2701 2680 2680 2680 2659 2639 2639 2618 2598 2598 2579 2579 0 0 0 0 0 0 0 0 0 0 0 0 0 0 0 0 0 0 0 0 0 0 0 0 0
469 470 469 469 469 469 469 469 468 468 468 474 474 474 474 473 473 474 474 474 474 474 476 476 476 476 477 478 478 478 478 478 478 478 479 480 480 480 480 481 481 480 480 480 484 485 487 487 487 488 489 489 490 491 491 492 492 491 491 495 495 496 496 496 496 496 496 496 497 498 499 499 499 502 502 502 503 503 504 505 507 507 508 509 509 509 510 511 511 511 513 514 514 514 514 515 515 515 517 517 517 519 521 521 522 522 523 523 523 523 523 523 526 526 526 527 527 527 527 529 530 531 531 532 532 533 534 534 534 535 535 536 537 537 538 538 539 539 540 540 540 540 540 540 541 542 544 545 546 546 546 548 549 549 550 550 551 551 552 553 554 554 554 554 554 556 556 557 557 557 558 558 558 559 559 562 562 562 563 565 565 565 566 567 568 569 569 569 569 570 571 571 573 573 574 576 576 576 576 576 576 577 581 581 582 583 583 583 583 585 585 586 586 587 588 588 590 592 592 592 592 593 593 594 594 596 596 597 598 598 598 600 600 601 601 603 604 604 606 606 606 607 608 609 610 610 614 613 613 614 614 615 615 615 615 619 620 621 621 622 622 622 623 623 625 628 630 630 630 630 631 631 631 631 631 632 632 635 637 637 637 637 637 641 641 641 642 642 644 646 646 649 650 650 650 652 652 653 654 654 655 655 655 657 657 657 658 659 659 661 662 663 664 664 666 668 670 671 671 674 675 675 676 676 676 676 676 678 679 680 683 683 686 686 687 687 688 688 688 691 691 691 693 694 696 697 697 697 701 704 704 704 703 703 703 701 701 701 701 713 714 714 716 716 716 716 717 719 719 720 720 722 723 723 722 722 725 730 730 731 733 733 734 734 734 736 738 741 744 744 744 746 746 746 746 747 749 750 750 750 752 752 750 750 750 754 769 769 771 769 769 769 771 771 771 773 774 776 778 780 781 781 781 783 783 783 783 783 787 790 790 792 794 796 798 798 802 802 803 807 807 807 807 809 809 811 811 815 817 817 819 819 821 825 827 827 829 831 831 833 835 837 839 841 843 845 845 845 847 849 851 851 856 858 858 858 860 862 864 867 869 871 873 873 875 878 878 882 882 885 885 887 889 894 894 896 896 898 903 906 906 906 908 910 915 918 918 920 923 923 925 925 928 930 930 933 935 938 940 940 943 943 943 948 954 959 959 959 959 962 962 964 967 970 973 975 978 978 984 984 989 995 995 998 998 1001 1004 1007 1007 1013 1013 1013 1028 1028 1028 1031 1034 1034 1034 1034 1038 1041 1044 1044 1044 1057 1057 1057 3037 3037 3010 3010 2984 2958 2958 2958 2958 2958 2933 2933 2908 2908 2933 2908 2908 2883 2883 2883 2859 2859 2835 2812 2812 2812 2812 2789 2789 2767 2767 2767 2767 2767 2744 2701 2680 2680 2680 2659 2639 2618 2598 2598 2579 2579 2579 0 0 0 0 0 0 0 0 0 0 0 0 0 0 0 0 0 0 0 0 0 0 0 0 0
468 469 469 468 468 469 468 468 468 467 467 474 474 473 473 472 472 473 473 473 472 472 474 476 476 476 476 477 478 478 478 478 478 478 478 478 480 479 479 480 480 480 480 480 480 481 485 485 486 487 487 488 489 490 491 491 491 491 491 494 494 496 496 496 496 496 496 496 497 498 499 499 499 501 502 502 502 502 503 503 504 505 506 506 507 507 507 507 507 511 513 513 514 514 514 514 514 515 517 517 517 518 520 520 520 520 520 520 521 521 522 523 525 525 525 525 525 526 526 527 527 529 530 531 531 532 533 533 533 534 534 536 536 536 536 536 537 538 539 539 540 540 540 540 541 541 543 544 544 545 545 546 547 549 549 550 550 551 551 551 551 553 553 553 553 554 555 556 556 556 557 558 558 559 559 561 561 561 561 561 565 565 565 565 566 568 568 568 568 569 569 569 570 571 572 573 575 574 573 573 573 574 574 580 581 581 582 582 582 582 582 583 584 584 585 587 589 590 590 591 591 591 592 592 593 594 595 595 596 597 597 598 599 600 601 601 603 604 604 604 604 606 607 607 608 608 610 610 611 611 612 614 614 614 614 615 618 620 620 621 621 621 621 622 623 624 624 630 629 629 630 629 628 628 630 630 630 632 634 636 636 636 636 636 637 640 641 641 643 643 644 646 647 647 649 649 650 652 652 653 654 654 654 655 655 655 657 657 658 658 658 659 661 662 662 664 667 668 670 670 672 672 674 675 675 676 676 676 676 678 679 680 683 684 686 686 686 686 686 687 687 688 690 690 693 693 693 693 694 698 700 700 703 701 701 700 700 700 700 710 711 711 714 714 713 713 713 714 716 716 716 719 720 722 720 720 722 727 728 730 730 733 733 733 733 733 734 736 738 739 739 744 744 744 744 746 747 749 749 749 750 752 750 750 750 752 754 761 761 766 767 767 767 767 769 769 771 773 774 778 780 780 780 781 781 781 781 783 785 787 789 790 792 794 796 796 798 798 802 803 805 805 807 807 809 809 811 813 815 817 817 819 819 823 825 827 829 829 831 833 835 837 839 841 843 843 845 845 847 849 851 851 856 858 858 858 860 862 864 867 871 871 873 873 875 878 878 882 882 885 885 887 891 894 894 896 898 901 903 906 906 906 908 910 915 918 918 920 923 923 925 925 925 930 933 933 935 938 940 940 943 946 946 948 951 956 959 959 959 962 962 964 967 967 973 975 975 975 978 984 989 995 995 998 998 1001 1004 1007 1007 1007 2701 2701 2680 2680 2680 2680 1038 1038 1038 1038 1041 1044 1044 3064 3064 3064 3064 3037 3037 3037 3010 3010 2984 2958 2958 2958 2958 2958 2933 2933 2908 2908 2933 2883 2883 2883 2883 2859 2859 2859 2859 2835 2835 2835 2812 2812 2789 2789 2789 2767 2767 2744 2744 2701 2701 2680 2680 2659 2639 2618 2598 2598 2560 2560 2579 0 0 0 0 0 0 0 0 0 0 0 0 0 0 0 0 0 0 0 0 0 0 0 0 0
